ply
format ascii 1.0
comment VCGLIB generated
element vertex 1154
property float x
property float y
property float z
property uchar red
property uchar green
property uchar blue
property uchar alpha
element face 0
property list uchar int vertex_indices
end_header
0.62069 0.260095 1.546 128 128 128 255 
0.620843 0.258917 1.539 128 128 128 255 
0.623807 0.258917 1.539 128 128 128 255 
0.62677 0.258917 1.539 128 128 128 255 
0.629734 0.258917 1.539 128 128 128 255 
0.632697 0.258917 1.539 128 128 128 255 
0.635661 0.258917 1.539 128 128 128 255 
0.638625 0.258917 1.539 128 128 128 255 
0.641588 0.258917 1.539 128 128 128 255 
0.644552 0.258917 1.539 128 128 128 255 
0.647515 0.258917 1.539 128 128 128 255 
0.650479 0.258917 1.539 128 128 128 255 
0.653442 0.258917 1.539 128 128 128 255 
0.656406 0.258917 1.539 128 128 128 255 
0.65937 0.258917 1.539 128 128 128 255 
0.662333 0.258917 1.539 128 128 128 255 
0.665297 0.258917 1.539 128 128 128 255 
0.66826 0.258917 1.539 128 128 128 255 
0.668171 0.257739 1.532 128 128 128 255 
0.668055 0.256562 1.525 128 128 128 255 
0.668351 0.255552 1.519 128 128 128 255 
0.671276 0.255552 1.519 128 128 128 255 
0.674201 0.255552 1.519 128 128 128 255 
0.677127 0.255552 1.519 128 128 128 255 
0.680052 0.255552 1.519 128 128 128 255 
0.682977 0.255552 1.519 128 128 128 255 
0.682741 0.254375 1.512 128 128 128 255 
0.685652 0.254375 1.512 128 128 128 255 
-0.327493 0.264269 1.553 128 128 128 255 
-0.325965 0.265461 1.56 128 128 128 255 
-0.322961 0.265461 1.56 128 128 128 255 
-0.318522 0.264269 1.553 128 128 128 255 
-0.315531 0.264269 1.553 128 128 128 255 
-0.31254 0.264269 1.553 128 128 128 255 
-0.30955 0.264269 1.553 128 128 128 255 
-0.306559 0.264269 1.553 128 128 128 255 
-0.303569 0.264269 1.553 128 128 128 255 
-0.300578 0.264269 1.553 128 128 128 255 
-0.297588 0.264269 1.553 128 128 128 255 
-0.293269 0.263078 1.546 128 128 128 255 
-0.291607 0.264269 1.553 128 128 128 255 
-0.288616 0.264269 1.553 128 128 128 255 
-0.285626 0.264269 1.553 128 128 128 255 
-0.281361 0.263078 1.546 128 128 128 255 
-0.279644 0.264269 1.553 128 128 128 255 
-0.276654 0.264269 1.553 128 128 128 255 
-0.273663 0.264269 1.553 128 128 128 255 
-0.270673 0.264269 1.553 128 128 128 255 
-0.267682 0.264269 1.553 128 128 128 255 
-0.264692 0.264269 1.553 128 128 128 255 
-0.262881 0.265461 1.56 128 128 128 255 
-0.258711 0.264269 1.553 128 128 128 255 
-0.25572 0.264269 1.553 128 128 128 255 
-0.25273 0.264269 1.553 128 128 128 255 
-0.249739 0.264269 1.553 128 128 128 255 
-0.246748 0.264269 1.553 128 128 128 255 
-0.243758 0.264269 1.553 128 128 128 255 
-0.239682 0.263078 1.546 128 128 128 255 
-0.236705 0.263078 1.546 128 128 128 255 
-0.233728 0.263078 1.546 128 128 128 255 
-0.230751 0.263078 1.546 128 128 128 255 
-0.227774 0.263078 1.546 128 128 128 255 
-0.224797 0.263078 1.546 128 128 128 255 
-0.22182 0.263078 1.546 128 128 128 255 
-0.219834 0.264269 1.553 128 128 128 255 
-0.216843 0.264269 1.553 128 128 128 255 
-0.212889 0.263078 1.546 128 128 128 255 
-0.210862 0.264269 1.553 128 128 128 255 
-0.207871 0.264269 1.553 128 128 128 255 
-0.204881 0.264269 1.553 128 128 128 255 
-0.20189 0.264269 1.553 128 128 128 255 
-0.1989 0.264269 1.553 128 128 128 255 
-0.195909 0.264269 1.553 128 128 128 255 
-0.192919 0.264269 1.553 128 128 128 255 
-0.189928 0.264269 1.553 128 128 128 255 
-0.186938 0.264269 1.553 128 128 128 255 
-0.183118 0.263078 1.546 128 128 128 255 
-0.180141 0.263078 1.546 128 128 128 255 
-0.177164 0.263078 1.546 128 128 128 255 
-0.174187 0.263078 1.546 128 128 128 255 
-0.17121 0.263078 1.546 128 128 128 255 
-0.168233 0.263078 1.546 128 128 128 255 
-0.165255 0.263078 1.546 128 128 128 255 
-0.162278 0.263078 1.546 128 128 128 255 
-0.159301 0.263078 1.546 128 128 128 255 
-0.156324 0.263078 1.546 128 128 128 255 
-0.153347 0.263078 1.546 128 128 128 255 
-0.15037 0.263078 1.546 128 128 128 255 
-0.147393 0.263078 1.546 128 128 128 255 
-0.144416 0.263078 1.546 128 128 128 255 
-0.141439 0.263078 1.546 128 128 128 255 
-0.138462 0.263078 1.546 128 128 128 255 
-0.136098 0.264269 1.553 128 128 128 255 
-0.132508 0.263078 1.546 128 128 128 255 
-0.129531 0.263078 1.546 128 128 128 255 
-0.126554 0.263078 1.546 128 128 128 255 
-0.123577 0.263078 1.546 128 128 128 255 
-0.1206 0.263078 1.546 128 128 128 255 
-0.11709 0.261887 1.539 128 128 128 255 
-0.114126 0.261887 1.539 128 128 128 255 
-0.111163 0.261887 1.539 128 128 128 255 
-0.108199 0.261887 1.539 128 128 128 255 
-0.105236 0.261887 1.539 128 128 128 255 
-0.102272 0.261887 1.539 128 128 128 255 
-0.09976 0.263078 1.546 128 128 128 255 
-0.0972212 0.264269 1.553 128 128 128 255 
-0.0942306 0.264269 1.553 128 128 128 255 
-0.0912401 0.264269 1.553 128 128 128 255 
-0.0882496 0.264269 1.553 128 128 128 255 
-0.085259 0.264269 1.553 128 128 128 255 
-0.0822685 0.264269 1.553 128 128 128 255 
-0.0792779 0.264269 1.553 128 128 128 255 
-0.0762874 0.264269 1.553 128 128 128 255 
-0.0729664 0.263078 1.546 128 128 128 255 
-0.0699894 0.263078 1.546 128 128 128 255 
-0.0673157 0.264269 1.553 128 128 128 255 
-0.0643252 0.264269 1.553 128 128 128 255 
-0.0613346 0.264269 1.553 128 128 128 255 
-0.0583441 0.264269 1.553 128 128 128 255 
-0.0553536 0.264269 1.553 128 128 128 255 
-0.052127 0.263078 1.546 128 128 128 255 
-0.0491499 0.263078 1.546 128 128 128 255 
-0.0461729 0.263078 1.546 128 128 128 255 
-0.0431958 0.263078 1.546 128 128 128 255 
-0.0402187 0.263078 1.546 128 128 128 255 
-0.0372417 0.263078 1.546 128 128 128 255 
-0.0342646 0.263078 1.546 128 128 128 255 
-0.0312875 0.263078 1.546 128 128 128 255 
-0.0283105 0.263078 1.546 128 128 128 255 
-0.0253334 0.263078 1.546 128 128 128 255 
-0.0224576 0.264269 1.553 128 128 128 255 
-0.019467 0.264269 1.553 128 128 128 255 
-0.0164765 0.264269 1.553 128 128 128 255 
-0.0134251 0.263078 1.546 128 128 128 255 
-0.0104954 0.264269 1.553 128 128 128 255 
-0.00750484 0.264269 1.553 128 128 128 255 
-0.0041771 0.24453 1.437 128 128 128 255 
-0.00140993 0.24453 1.437 128 128 128 255 
0.00135724 0.24453 1.437 128 128 128 255 
0.00410719 0.243509 1.431 128 128 128 255 
0.00683403 0.242488 1.425 128 128 128 255 
0.00953776 0.241467 1.419 128 128 128 255 
0.0122703 0.241467 1.419 128 128 128 255 
0.0150028 0.241467 1.419 128 128 128 255 
0.0177353 0.241467 1.419 128 128 128 255 
0.0203812 0.240446 1.413 128 128 128 255 
0.0231022 0.240446 1.413 128 128 128 255 
0.0258231 0.240446 1.413 128 128 128 255 
0.0285441 0.240446 1.413 128 128 128 255 
0.0311323 0.239425 1.407 128 128 128 255 
0.0338417 0.239425 1.407 128 128 128 255 
0.0364212 0.238574 1.402 128 128 128 255 
0.0389535 0.237553 1.396 128 128 128 255 
0.0416418 0.237553 1.396 128 128 128 255 
0.04433 0.237553 1.396 128 128 128 255 
0.0468161 0.236532 1.39 128 128 128 255 
0.0494928 0.236532 1.39 128 128 128 255 
0.0521694 0.236532 1.39 128 128 128 255 
0.0548461 0.236532 1.39 128 128 128 255 
0.0573159 0.235681 1.385 128 128 128 255 
0.0599829 0.235681 1.385 128 128 128 255 
0.0623785 0.23466 1.379 128 128 128 255 
0.0647982 0.23381 1.374 128 128 128 255 
0.067444 0.23381 1.374 128 128 128 255 
0.0700899 0.23381 1.374 128 128 128 255 
0.0727357 0.23381 1.374 128 128 128 255 
0.0750524 0.232789 1.368 128 128 128 255 
0.0776867 0.232789 1.368 128 128 128 255 
0.080321 0.232789 1.368 128 128 128 255 
0.0829553 0.232789 1.368 128 128 128 255 
0.0852768 0.231938 1.363 128 128 128 255 
0.0879015 0.231938 1.363 128 128 128 255 
0.0905261 0.231938 1.363 128 128 128 255 
0.0928091 0.231087 1.358 128 128 128 255 
0.0954241 0.231087 1.358 128 128 128 255 
0.097606 0.230066 1.352 128 128 128 255 
0.10021 0.230066 1.352 128 128 128 255 
0.102433 0.229215 1.347 128 128 128 255 
0.105027 0.229215 1.347 128 128 128 255 
0.10762 0.229215 1.347 128 128 128 255 
0.109805 0.228364 1.342 128 128 128 255 
0.112389 0.228364 1.342 128 128 128 255 
0.11446 0.227343 1.336 128 128 128 255 
0.117032 0.227343 1.336 128 128 128 255 
0.119605 0.227343 1.336 128 128 128 255 
0.12172 0.226492 1.331 128 128 128 255 
0.124283 0.226492 1.331 128 128 128 255 
0.126847 0.226492 1.331 128 128 128 255 
0.128923 0.225642 1.326 128 128 128 255 
0.131477 0.225642 1.326 128 128 128 255 
0.133525 0.224791 1.321 128 128 128 255 
0.136069 0.224791 1.321 128 128 128 255 
0.138088 0.22394 1.316 128 128 128 255 
0.140622 0.22394 1.316 128 128 128 255 
0.142612 0.223089 1.311 128 128 128 255 
0.145137 0.223089 1.311 128 128 128 255 
0.147661 0.223089 1.311 128 128 128 255 
0.149613 0.222238 1.306 128 128 128 255 
0.152128 0.222238 1.306 128 128 128 255 
0.154643 0.222238 1.306 128 128 128 255 
0.157158 0.222238 1.306 128 128 128 255 
0.159061 0.221387 1.301 128 128 128 255 
0.161567 0.221387 1.301 128 128 128 255 
0.164072 0.221387 1.301 128 128 128 255 
0.166577 0.221387 1.301 128 128 128 255 
0.168433 0.220537 1.296 128 128 128 255 
0.170928 0.220537 1.296 128 128 128 255 
0.172755 0.219686 1.291 128 128 128 255 
0.175241 0.219686 1.291 128 128 128 255 
0.177176 0.219005 1.287 128 128 128 255 
0.179655 0.219005 1.287 128 128 128 255 
0.181425 0.218154 1.282 128 128 128 255 
0.183177 0.217303 1.277 128 128 128 255 
0.184909 0.216453 1.272 128 128 128 255 
0.187358 0.216453 1.272 128 128 128 255 
0.189808 0.216453 1.272 128 128 128 255 
0.192257 0.216453 1.272 128 128 128 255 
0.194095 0.215772 1.268 128 128 128 255 
0.196536 0.215772 1.268 128 128 128 255 
0.198978 0.215772 1.268 128 128 128 255 
0.200625 0.214921 1.263 128 128 128 255 
0.203058 0.214921 1.263 128 128 128 255 
0.204839 0.21424 1.259 128 128 128 255 
0.207263 0.21424 1.259 128 128 128 255 
0.209688 0.21424 1.259 128 128 128 255 
0.21127 0.21339 1.254 128 128 128 255 
0.213684 0.21339 1.254 128 128 128 255 
0.216099 0.21339 1.254 128 128 128 255 
0.217643 0.212539 1.249 128 128 128 255 
0.219343 0.211858 1.245 128 128 128 255 
0.221741 0.211858 1.245 128 128 128 255 
0.223238 0.211007 1.24 128 128 128 255 
0.225626 0.211007 1.24 128 128 128 255 
0.228014 0.211007 1.24 128 128 128 255 
0.229658 0.210327 1.236 128 128 128 255 
0.232038 0.210327 1.236 128 128 128 255 
0.23366 0.209646 1.232 128 128 128 255 
0.236032 0.209646 1.232 128 128 128 255 
0.238405 0.209646 1.232 128 128 128 255 
0.2398 0.208795 1.227 128 128 128 255 
0.242163 0.208795 1.227 128 128 128 255 
0.244525 0.208795 1.227 128 128 128 255 
0.246083 0.208114 1.223 128 128 128 255 
0.248438 0.208114 1.223 128 128 128 255 
0.249973 0.207434 1.219 128 128 128 255 
0.252321 0.207434 1.219 128 128 128 255 
0.254668 0.207434 1.219 128 128 128 255 
0.255961 0.206583 1.214 128 128 128 255 
0.258299 0.206583 1.214 128 128 128 255 
0.260637 0.206583 1.214 128 128 128 255 
0.261241 0.205222 1.206 128 128 128 255 
0.263564 0.205222 1.206 128 128 128 255 
0.265004 0.204541 1.202 128 128 128 255 
0.267319 0.204541 1.202 128 128 128 255 
0.269633 0.204541 1.202 128 128 128 255 
0.271948 0.204541 1.202 128 128 128 255 
0.274263 0.204541 1.202 128 128 128 255 
0.276577 0.204541 1.202 128 128 128 255 
0.280748 0.205902 1.21 128 128 128 255 
0.284014 0.206583 1.214 128 128 128 255 
0.287531 0.207434 1.219 128 128 128 255 
0.29083 0.208114 1.223 128 128 128 255 
0.295342 0.209646 1.232 128 128 128 255 
0.298681 0.210327 1.236 128 128 128 255 
0.302036 0.211007 1.24 128 128 128 255 
0.304424 0.211007 1.24 128 128 128 255 
0.309038 0.212539 1.249 128 128 128 255 
0.311443 0.212539 1.249 128 128 128 255 
0.395515 0.267843 1.574 128 128 128 255 
0.389683 0.261887 1.539 128 128 128 255 
0.392647 0.261887 1.539 128 128 128 255 
0.39561 0.261887 1.539 128 128 128 255 
0.398574 0.261887 1.539 128 128 128 255 
0.401538 0.261887 1.539 128 128 128 255 
0.404501 0.261887 1.539 128 128 128 255 
0.407465 0.261887 1.539 128 128 128 255 
0.410428 0.261887 1.539 128 128 128 255 
0.413392 0.261887 1.539 128 128 128 255 
0.416356 0.261887 1.539 128 128 128 255 
0.419319 0.261887 1.539 128 128 128 255 
0.422283 0.261887 1.539 128 128 128 255 
0.427181 0.263078 1.546 128 128 128 255 
0.430158 0.263078 1.546 128 128 128 255 
0.433135 0.263078 1.546 128 128 128 255 
0.436112 0.263078 1.546 128 128 128 255 
0.437101 0.261887 1.539 128 128 128 255 
0.440064 0.261887 1.539 128 128 128 255 
0.443028 0.261887 1.539 128 128 128 255 
0.445991 0.261887 1.539 128 128 128 255 
0.448955 0.261887 1.539 128 128 128 255 
0.451919 0.261887 1.539 128 128 128 255 
0.454882 0.261887 1.539 128 128 128 255 
0.457846 0.261887 1.539 128 128 128 255 
0.460809 0.261887 1.539 128 128 128 255 
0.463773 0.261887 1.539 128 128 128 255 
0.464614 0.260696 1.532 128 128 128 255 
0.4697 0.261887 1.539 128 128 128 255 
0.470514 0.260696 1.532 128 128 128 255 
0.473464 0.260696 1.532 128 128 128 255 
0.476414 0.260696 1.532 128 128 128 255 
0.481555 0.261887 1.539 128 128 128 255 
0.482314 0.260696 1.532 128 128 128 255 
0.487482 0.261887 1.539 128 128 128 255 
0.490445 0.261887 1.539 128 128 128 255 
0.493409 0.261887 1.539 128 128 128 255 
0.496372 0.261887 1.539 128 128 128 255 
0.499336 0.261887 1.539 128 128 128 255 
0.500015 0.260696 1.532 128 128 128 255 
0.505263 0.261887 1.539 128 128 128 255 
0.508227 0.261887 1.539 128 128 128 255 
0.51119 0.261887 1.539 128 128 128 255 
0.514154 0.261887 1.539 128 128 128 255 
0.517118 0.261887 1.539 128 128 128 255 
0.520081 0.261887 1.539 128 128 128 255 
0.523045 0.261887 1.539 128 128 128 255 
0.526008 0.261887 1.539 128 128 128 255 
0.528972 0.261887 1.539 128 128 128 255 
0.531935 0.261887 1.539 128 128 128 255 
0.534899 0.261887 1.539 128 128 128 255 
0.537863 0.261887 1.539 128 128 128 255 
0.540826 0.261887 1.539 128 128 128 255 
0.54379 0.261887 1.539 128 128 128 255 
0.546753 0.261887 1.539 128 128 128 255 
0.549717 0.261887 1.539 128 128 128 255 
0.552681 0.261887 1.539 128 128 128 255 
0.555644 0.261887 1.539 128 128 128 255 
0.558608 0.261887 1.539 128 128 128 255 
0.559017 0.260696 1.532 128 128 128 255 
0.561967 0.260696 1.532 128 128 128 255 
0.564917 0.260696 1.532 128 128 128 255 
0.567867 0.260696 1.532 128 128 128 255 
0.570818 0.260696 1.532 128 128 128 255 
0.573768 0.260696 1.532 128 128 128 255 
0.576718 0.260696 1.532 128 128 128 255 
0.579668 0.260696 1.532 128 128 128 255 
0.582618 0.260696 1.532 128 128 128 255 
0.585568 0.260696 1.532 128 128 128 255 
0.588518 0.260696 1.532 128 128 128 255 
0.591468 0.260696 1.532 128 128 128 255 
0.591702 0.259505 1.525 128 128 128 255 
0.597368 0.260696 1.532 128 128 128 255 
0.600319 0.260696 1.532 128 128 128 255 
0.603269 0.260696 1.532 128 128 128 255 
0.606219 0.260696 1.532 128 128 128 255 
0.611952 0.261887 1.539 128 128 128 255 
0.614916 0.261887 1.539 128 128 128 255 
0.617879 0.261887 1.539 128 128 128 255 
0.620843 0.261887 1.539 128 128 128 255 
0.623807 0.261887 1.539 128 128 128 255 
0.62677 0.261887 1.539 128 128 128 255 
0.629734 0.261887 1.539 128 128 128 255 
0.632697 0.261887 1.539 128 128 128 255 
0.635661 0.261887 1.539 128 128 128 255 
0.63572 0.260696 1.532 128 128 128 255 
0.63867 0.260696 1.532 128 128 128 255 
0.64162 0.260696 1.532 128 128 128 255 
0.64457 0.260696 1.532 128 128 128 255 
0.64752 0.260696 1.532 128 128 128 255 
0.65047 0.260696 1.532 128 128 128 255 
0.65342 0.260696 1.532 128 128 128 255 
0.656371 0.260696 1.532 128 128 128 255 
0.659321 0.260696 1.532 128 128 128 255 
0.665297 0.261887 1.539 128 128 128 255 
0.665221 0.260696 1.532 128 128 128 255 
0.665118 0.259505 1.525 128 128 128 255 
0.668055 0.259505 1.525 128 128 128 255 
0.668351 0.258484 1.519 128 128 128 255 
0.671276 0.258484 1.519 128 128 128 255 
0.674201 0.258484 1.519 128 128 128 255 
0.677127 0.258484 1.519 128 128 128 255 
0.680052 0.258484 1.519 128 128 128 255 
0.679829 0.257293 1.512 128 128 128 255 
0.682741 0.257293 1.512 128 128 128 255 
0.688827 0.258484 1.519 128 128 128 255 
0.691752 0.258484 1.519 128 128 128 255 
-0.327493 0.267267 1.553 128 128 128 255 
-0.324503 0.267267 1.553 128 128 128 255 
-0.321512 0.267267 1.553 128 128 128 255 
-0.317086 0.266062 1.546 128 128 128 255 
-0.314109 0.266062 1.546 128 128 128 255 
-0.311132 0.266062 1.546 128 128 128 255 
-0.308155 0.266062 1.546 128 128 128 255 
-0.305178 0.266062 1.546 128 128 128 255 
-0.3022 0.266062 1.546 128 128 128 255 
-0.299223 0.266062 1.546 128 128 128 255 
-0.296246 0.266062 1.546 128 128 128 255 
-0.293269 0.266062 1.546 128 128 128 255 
-0.290292 0.266062 1.546 128 128 128 255 
-0.287315 0.266062 1.546 128 128 128 255 
-0.284338 0.266062 1.546 128 128 128 255 
-0.281361 0.266062 1.546 128 128 128 255 
-0.278384 0.266062 1.546 128 128 128 255 
-0.275407 0.266062 1.546 128 128 128 255 
-0.27243 0.266062 1.546 128 128 128 255 
-0.269453 0.266062 1.546 128 128 128 255 
-0.266476 0.266062 1.546 128 128 128 255 
-0.264692 0.267267 1.553 128 128 128 255 
-0.261701 0.267267 1.553 128 128 128 255 
-0.258711 0.267267 1.553 128 128 128 255 
-0.25572 0.267267 1.553 128 128 128 255 
-0.25273 0.267267 1.553 128 128 128 255 
-0.249739 0.267267 1.553 128 128 128 255 
-0.246748 0.267267 1.553 128 128 128 255 
-0.242659 0.266062 1.546 128 128 128 255 
-0.239682 0.266062 1.546 128 128 128 255 
-0.235633 0.264857 1.539 128 128 128 255 
-0.23267 0.264857 1.539 128 128 128 255 
-0.229706 0.264857 1.539 128 128 128 255 
-0.226743 0.264857 1.539 128 128 128 255 
-0.223779 0.264857 1.539 128 128 128 255 
-0.22182 0.266062 1.546 128 128 128 255 
-0.218843 0.266062 1.546 128 128 128 255 
-0.215866 0.266062 1.546 128 128 128 255 
-0.212889 0.266062 1.546 128 128 128 255 
-0.209911 0.266062 1.546 128 128 128 255 
-0.206934 0.266062 1.546 128 128 128 255 
-0.203957 0.266062 1.546 128 128 128 255 
-0.20098 0.266062 1.546 128 128 128 255 
-0.198003 0.266062 1.546 128 128 128 255 
-0.195026 0.266062 1.546 128 128 128 255 
-0.192049 0.266062 1.546 128 128 128 255 
-0.189072 0.266062 1.546 128 128 128 255 
-0.186095 0.266062 1.546 128 128 128 255 
-0.182289 0.264857 1.539 128 128 128 255 
-0.179325 0.264857 1.539 128 128 128 255 
-0.176362 0.264857 1.539 128 128 128 255 
-0.173398 0.264857 1.539 128 128 128 255 
-0.170434 0.264857 1.539 128 128 128 255 
-0.167471 0.264857 1.539 128 128 128 255 
-0.164507 0.264857 1.539 128 128 128 255 
-0.161544 0.264857 1.539 128 128 128 255 
-0.15858 0.264857 1.539 128 128 128 255 
-0.155616 0.264857 1.539 128 128 128 255 
-0.152653 0.264857 1.539 128 128 128 255 
-0.149689 0.264857 1.539 128 128 128 255 
-0.146726 0.264857 1.539 128 128 128 255 
-0.143762 0.264857 1.539 128 128 128 255 
-0.140799 0.264857 1.539 128 128 128 255 
-0.137835 0.264857 1.539 128 128 128 255 
-0.135485 0.266062 1.546 128 128 128 255 
-0.132508 0.266062 1.546 128 128 128 255 
-0.129531 0.266062 1.546 128 128 128 255 
-0.126554 0.266062 1.546 128 128 128 255 
-0.123017 0.264857 1.539 128 128 128 255 
-0.120053 0.264857 1.539 128 128 128 255 
-0.11709 0.264857 1.539 128 128 128 255 
-0.114126 0.264857 1.539 128 128 128 255 
-0.111163 0.264857 1.539 128 128 128 255 
-0.108199 0.264857 1.539 128 128 128 255 
-0.105236 0.264857 1.539 128 128 128 255 
-0.102272 0.264857 1.539 128 128 128 255 
-0.0993083 0.264857 1.539 128 128 128 255 
-0.096783 0.266062 1.546 128 128 128 255 
-0.0938059 0.266062 1.546 128 128 128 255 
-0.0912401 0.267267 1.553 128 128 128 255 
-0.0882496 0.267267 1.553 128 128 128 255 
-0.085259 0.267267 1.553 128 128 128 255 
-0.0822685 0.267267 1.553 128 128 128 255 
-0.0792779 0.267267 1.553 128 128 128 255 
-0.0759435 0.266062 1.546 128 128 128 255 
-0.0729664 0.266062 1.546 128 128 128 255 
-0.0699894 0.266062 1.546 128 128 128 255 
-0.0670123 0.266062 1.546 128 128 128 255 
-0.0640353 0.266062 1.546 128 128 128 255 
-0.0610582 0.266062 1.546 128 128 128 255 
-0.0580811 0.266062 1.546 128 128 128 255 
-0.0551041 0.266062 1.546 128 128 128 255 
-0.052127 0.266062 1.546 128 128 128 255 
-0.0491499 0.266062 1.546 128 128 128 255 
-0.0461729 0.266062 1.546 128 128 128 255 
-0.0431958 0.266062 1.546 128 128 128 255 
-0.0402187 0.266062 1.546 128 128 128 255 
-0.0372417 0.266062 1.546 128 128 128 255 
-0.0342646 0.266062 1.546 128 128 128 255 
-0.0311459 0.264857 1.539 128 128 128 255 
-0.0281823 0.264857 1.539 128 128 128 255 
-0.0253334 0.266062 1.546 128 128 128 255 
-0.0223563 0.266062 1.546 128 128 128 255 
-0.0193793 0.266062 1.546 128 128 128 255 
-0.0164022 0.266062 1.546 128 128 128 255 
-0.0133644 0.264857 1.539 128 128 128 255 
-0.0104008 0.264857 1.539 128 128 128 255 
-0.00747101 0.266062 1.546 128 128 128 255 
-0.0041771 0.247303 1.437 128 128 128 255 
-0.00140993 0.247303 1.437 128 128 128 255 
0.00135724 0.247303 1.437 128 128 128 255 
0.00410719 0.246271 1.431 128 128 128 255 
0.0068628 0.246271 1.431 128 128 128 255 
0.00957809 0.245238 1.425 128 128 128 255 
0.0122703 0.244206 1.419 128 128 128 255 
0.0150028 0.244206 1.419 128 128 128 255 
0.0177353 0.244206 1.419 128 128 128 255 
0.0204678 0.244206 1.419 128 128 128 255 
0.0231022 0.243173 1.413 128 128 128 255 
0.0258231 0.243173 1.413 128 128 128 255 
0.0285441 0.243173 1.413 128 128 128 255 
0.0311323 0.24214 1.407 128 128 128 255 
0.0338417 0.24214 1.407 128 128 128 255 
0.0364212 0.24128 1.402 128 128 128 255 
0.0389535 0.240247 1.396 128 128 128 255 
0.0416418 0.240247 1.396 128 128 128 255 
0.04433 0.240247 1.396 128 128 128 255 
0.0468161 0.239215 1.39 128 128 128 255 
0.0494928 0.239215 1.39 128 128 128 255 
0.0521694 0.239215 1.39 128 128 128 255 
0.0548461 0.239215 1.39 128 128 128 255 
0.0573159 0.238354 1.385 128 128 128 255 
0.059723 0.237322 1.379 128 128 128 255 
0.0623785 0.237322 1.379 128 128 128 255 
0.0647982 0.236461 1.374 128 128 128 255 
0.067444 0.236461 1.374 128 128 128 255 
0.0700899 0.236461 1.374 128 128 128 255 
0.0727357 0.236461 1.374 128 128 128 255 
0.0750524 0.235429 1.368 128 128 128 255 
0.0776867 0.235429 1.368 128 128 128 255 
0.080321 0.235429 1.368 128 128 128 255 
0.0829553 0.235429 1.368 128 128 128 255 
0.0852768 0.234568 1.363 128 128 128 255 
0.0879015 0.234568 1.363 128 128 128 255 
0.0905261 0.234568 1.363 128 128 128 255 
0.0928091 0.233708 1.358 128 128 128 255 
0.0954241 0.233708 1.358 128 128 128 255 
0.097606 0.232675 1.352 128 128 128 255 
0.10021 0.232675 1.352 128 128 128 255 
0.102813 0.232675 1.352 128 128 128 255 
0.105416 0.232675 1.352 128 128 128 255 
0.10762 0.231815 1.347 128 128 128 255 
0.109805 0.230954 1.342 128 128 128 255 
0.112389 0.230954 1.342 128 128 128 255 
0.11446 0.229922 1.336 128 128 128 255 
0.117032 0.229922 1.336 128 128 128 255 
0.119605 0.229922 1.336 128 128 128 255 
0.12172 0.229061 1.331 128 128 128 255 
0.124283 0.229061 1.331 128 128 128 255 
0.126847 0.229061 1.331 128 128 128 255 
0.128923 0.228201 1.326 128 128 128 255 
0.131477 0.228201 1.326 128 128 128 255 
0.133525 0.22734 1.321 128 128 128 255 
0.136069 0.22734 1.321 128 128 128 255 
0.138612 0.22734 1.321 128 128 128 255 
0.140622 0.22648 1.316 128 128 128 255 
0.142612 0.225619 1.311 128 128 128 255 
0.145137 0.225619 1.311 128 128 128 255 
0.147661 0.225619 1.311 128 128 128 255 
0.150186 0.225619 1.311 128 128 128 255 
0.15271 0.225619 1.311 128 128 128 255 
0.154643 0.224759 1.306 128 128 128 255 
0.157158 0.224759 1.306 128 128 128 255 
0.159673 0.224759 1.306 128 128 128 255 
0.162188 0.224759 1.306 128 128 128 255 
0.164072 0.223898 1.301 128 128 128 255 
0.166577 0.223898 1.301 128 128 128 255 
0.168433 0.223038 1.296 128 128 128 255 
0.170928 0.223038 1.296 128 128 128 255 
0.172755 0.222177 1.291 128 128 128 255 
0.175241 0.222177 1.291 128 128 128 255 
0.177176 0.221489 1.287 128 128 128 255 
0.179655 0.221489 1.287 128 128 128 255 
0.181425 0.220628 1.282 128 128 128 255 
0.183177 0.219768 1.277 128 128 128 255 
0.185636 0.219768 1.277 128 128 128 255 
0.187358 0.218907 1.272 128 128 128 255 
0.189808 0.218907 1.272 128 128 128 255 
0.192257 0.218907 1.272 128 128 128 255 
0.194707 0.218907 1.272 128 128 128 255 
0.196536 0.218219 1.268 128 128 128 255 
0.198978 0.218219 1.268 128 128 128 255 
0.20142 0.218219 1.268 128 128 128 255 
0.203058 0.217358 1.263 128 128 128 255 
0.20549 0.217358 1.263 128 128 128 255 
0.207263 0.21667 1.259 128 128 128 255 
0.209688 0.21667 1.259 128 128 128 255 
0.21127 0.21581 1.254 128 128 128 255 
0.213684 0.21581 1.254 128 128 128 255 
0.216099 0.21581 1.254 128 128 128 255 
0.217643 0.214949 1.249 128 128 128 255 
0.220048 0.214949 1.249 128 128 128 255 
0.221741 0.214261 1.245 128 128 128 255 
0.224138 0.214261 1.245 128 128 128 255 
0.225626 0.2134 1.24 128 128 128 255 
0.228014 0.2134 1.24 128 128 128 255 
0.229658 0.212712 1.236 128 128 128 255 
0.232038 0.212712 1.236 128 128 128 255 
0.234418 0.212712 1.236 128 128 128 255 
0.236798 0.212712 1.236 128 128 128 255 
0.238405 0.212023 1.232 128 128 128 255 
0.2398 0.211163 1.227 128 128 128 255 
0.242163 0.211163 1.227 128 128 128 255 
0.244525 0.211163 1.227 128 128 128 255 
0.246888 0.211163 1.227 128 128 128 255 
0.248438 0.210475 1.223 128 128 128 255 
0.249973 0.209786 1.219 128 128 128 255 
0.252321 0.209786 1.219 128 128 128 255 
0.254668 0.209786 1.219 128 128 128 255 
0.255961 0.208926 1.214 128 128 128 255 
0.258299 0.208926 1.214 128 128 128 255 
0.260637 0.208926 1.214 128 128 128 255 
0.262108 0.208237 1.21 128 128 128 255 
0.263564 0.207549 1.206 128 128 128 255 
0.265886 0.207549 1.206 128 128 128 255 
0.268208 0.207549 1.206 128 128 128 255 
0.269633 0.206861 1.202 128 128 128 255 
0.271948 0.206861 1.202 128 128 128 255 
0.274263 0.206861 1.202 128 128 128 255 
0.277498 0.207549 1.206 128 128 128 255 
0.280748 0.208237 1.21 128 128 128 255 
0.284014 0.208926 1.214 128 128 128 255 
0.287531 0.209786 1.219 128 128 128 255 
0.29083 0.210475 1.223 128 128 128 255 
0.295342 0.212023 1.232 128 128 128 255 
0.298681 0.212712 1.236 128 128 128 255 
0.301061 0.212712 1.236 128 128 128 255 
0.303442 0.212712 1.236 128 128 128 255 
0.305822 0.212712 1.236 128 128 128 255 
0.311443 0.214949 1.249 128 128 128 255 
0.38672 0.264857 1.539 128 128 128 255 
0.389683 0.264857 1.539 128 128 128 255 
0.390861 0.263653 1.532 128 128 128 255 
0.393811 0.263653 1.532 128 128 128 255 
0.396761 0.263653 1.532 128 128 128 255 
0.399711 0.263653 1.532 128 128 128 255 
0.402661 0.263653 1.532 128 128 128 255 
0.405612 0.263653 1.532 128 128 128 255 
0.408562 0.263653 1.532 128 128 128 255 
0.411512 0.263653 1.532 128 128 128 255 
0.416356 0.264857 1.539 128 128 128 255 
0.419319 0.264857 1.539 128 128 128 255 
0.422283 0.264857 1.539 128 128 128 255 
0.425246 0.264857 1.539 128 128 128 255 
0.42821 0.264857 1.539 128 128 128 255 
0.431174 0.264857 1.539 128 128 128 255 
0.434137 0.264857 1.539 128 128 128 255 
0.437101 0.264857 1.539 128 128 128 255 
0.440064 0.264857 1.539 128 128 128 255 
0.443028 0.264857 1.539 128 128 128 255 
0.443963 0.263653 1.532 128 128 128 255 
0.446913 0.263653 1.532 128 128 128 255 
0.449863 0.263653 1.532 128 128 128 255 
0.452813 0.263653 1.532 128 128 128 255 
0.457846 0.264857 1.539 128 128 128 255 
0.458713 0.263653 1.532 128 128 128 255 
0.461664 0.263653 1.532 128 128 128 255 
0.464614 0.263653 1.532 128 128 128 255 
0.467564 0.263653 1.532 128 128 128 255 
0.470514 0.263653 1.532 128 128 128 255 
0.473464 0.263653 1.532 128 128 128 255 
0.474237 0.262448 1.525 128 128 128 255 
0.479364 0.263653 1.532 128 128 128 255 
0.482314 0.263653 1.532 128 128 128 255 
0.485264 0.263653 1.532 128 128 128 255 
0.488215 0.263653 1.532 128 128 128 255 
0.491165 0.263653 1.532 128 128 128 255 
0.494115 0.263653 1.532 128 128 128 255 
0.497065 0.263653 1.532 128 128 128 255 
0.500015 0.263653 1.532 128 128 128 255 
0.502965 0.263653 1.532 128 128 128 255 
0.505915 0.263653 1.532 128 128 128 255 
0.508865 0.263653 1.532 128 128 128 255 
0.511815 0.263653 1.532 128 128 128 255 
0.514765 0.263653 1.532 128 128 128 255 
0.520081 0.264857 1.539 128 128 128 255 
0.523045 0.264857 1.539 128 128 128 255 
0.526008 0.264857 1.539 128 128 128 255 
0.528972 0.264857 1.539 128 128 128 255 
0.529516 0.263653 1.532 128 128 128 255 
0.532466 0.263653 1.532 128 128 128 255 
0.535416 0.263653 1.532 128 128 128 255 
0.538366 0.263653 1.532 128 128 128 255 
0.541316 0.263653 1.532 128 128 128 255 
0.544267 0.263653 1.532 128 128 128 255 
0.547217 0.263653 1.532 128 128 128 255 
0.550167 0.263653 1.532 128 128 128 255 
0.553117 0.263653 1.532 128 128 128 255 
0.556067 0.263653 1.532 128 128 128 255 
0.559017 0.263653 1.532 128 128 128 255 
0.559399 0.262448 1.525 128 128 128 255 
0.562336 0.262448 1.525 128 128 128 255 
0.565273 0.262448 1.525 128 128 128 255 
0.568209 0.262448 1.525 128 128 128 255 
0.571146 0.262448 1.525 128 128 128 255 
0.574083 0.262448 1.525 128 128 128 255 
0.577019 0.262448 1.525 128 128 128 255 
0.579956 0.262448 1.525 128 128 128 255 
0.582892 0.262448 1.525 128 128 128 255 
0.585829 0.262448 1.525 128 128 128 255 
0.588766 0.262448 1.525 128 128 128 255 
0.591702 0.262448 1.525 128 128 128 255 
0.594639 0.262448 1.525 128 128 128 255 
0.597576 0.262448 1.525 128 128 128 255 
0.600512 0.262448 1.525 128 128 128 255 
0.603449 0.262448 1.525 128 128 128 255 
0.609169 0.263653 1.532 128 128 128 255 
0.612119 0.263653 1.532 128 128 128 255 
0.617879 0.264857 1.539 128 128 128 255 
0.618019 0.263653 1.532 128 128 128 255 
0.620969 0.263653 1.532 128 128 128 255 
0.623919 0.263653 1.532 128 128 128 255 
0.626869 0.263653 1.532 128 128 128 255 
0.62982 0.263653 1.532 128 128 128 255 
0.63277 0.263653 1.532 128 128 128 255 
0.63572 0.263653 1.532 128 128 128 255 
0.63867 0.263653 1.532 128 128 128 255 
0.638688 0.262448 1.525 128 128 128 255 
0.641625 0.262448 1.525 128 128 128 255 
0.64752 0.263653 1.532 128 128 128 255 
0.65047 0.263653 1.532 128 128 128 255 
0.65342 0.263653 1.532 128 128 128 255 
0.656371 0.263653 1.532 128 128 128 255 
0.659321 0.263653 1.532 128 128 128 255 
0.662271 0.263653 1.532 128 128 128 255 
0.665221 0.263653 1.532 128 128 128 255 
0.665118 0.262448 1.525 128 128 128 255 
0.665426 0.261415 1.519 128 128 128 255 
0.668351 0.261415 1.519 128 128 128 255 
0.671276 0.261415 1.519 128 128 128 255 
0.671094 0.260211 1.512 128 128 128 255 
0.674006 0.260211 1.512 128 128 128 255 
0.676918 0.260211 1.512 128 128 128 255 
0.679829 0.260211 1.512 128 128 128 255 
0.685902 0.261415 1.519 128 128 128 255 
0.688827 0.261415 1.519 128 128 128 255 
0.691752 0.261415 1.519 128 128 128 255 
0.691476 0.260211 1.512 128 128 128 255 
0.694387 0.260211 1.512 128 128 128 255 
-0.326017 0.269046 1.546 128 128 128 255 
-0.32304 0.269046 1.546 128 128 128 255 
-0.320063 0.269046 1.546 128 128 128 255 
-0.317086 0.269046 1.546 128 128 128 255 
-0.312687 0.267827 1.539 128 128 128 255 
-0.311132 0.269046 1.546 128 128 128 255 
-0.306759 0.267827 1.539 128 128 128 255 
-0.303796 0.267827 1.539 128 128 128 255 
-0.300832 0.267827 1.539 128 128 128 255 
-0.297869 0.267827 1.539 128 128 128 255 
-0.294905 0.267827 1.539 128 128 128 255 
-0.291941 0.267827 1.539 128 128 128 255 
-0.288978 0.267827 1.539 128 128 128 255 
-0.286014 0.267827 1.539 128 128 128 255 
-0.283051 0.267827 1.539 128 128 128 255 
-0.280087 0.267827 1.539 128 128 128 255 
-0.277123 0.267827 1.539 128 128 128 255 
-0.27416 0.267827 1.539 128 128 128 255 
-0.271196 0.267827 1.539 128 128 128 255 
-0.268233 0.267827 1.539 128 128 128 255 
-0.265269 0.267827 1.539 128 128 128 255 
-0.263499 0.269046 1.546 128 128 128 255 
-0.260522 0.269046 1.546 128 128 128 255 
-0.257545 0.269046 1.546 128 128 128 255 
-0.254567 0.269046 1.546 128 128 128 255 
-0.25159 0.269046 1.546 128 128 128 255 
-0.248613 0.269046 1.546 128 128 128 255 
-0.245636 0.269046 1.546 128 128 128 255 
-0.24156 0.267827 1.539 128 128 128 255 
-0.238597 0.267827 1.539 128 128 128 255 
-0.235633 0.267827 1.539 128 128 128 255 
-0.23267 0.267827 1.539 128 128 128 255 
-0.229706 0.267827 1.539 128 128 128 255 
-0.226743 0.267827 1.539 128 128 128 255 
-0.223779 0.267827 1.539 128 128 128 255 
-0.220815 0.267827 1.539 128 128 128 255 
-0.217852 0.267827 1.539 128 128 128 255 
-0.214888 0.267827 1.539 128 128 128 255 
-0.211925 0.267827 1.539 128 128 128 255 
-0.208961 0.267827 1.539 128 128 128 255 
-0.206934 0.269046 1.546 128 128 128 255 
-0.203957 0.269046 1.546 128 128 128 255 
-0.20007 0.267827 1.539 128 128 128 255 
-0.197107 0.267827 1.539 128 128 128 255 
-0.194143 0.267827 1.539 128 128 128 255 
-0.191179 0.267827 1.539 128 128 128 255 
-0.188216 0.267827 1.539 128 128 128 255 
-0.185252 0.267827 1.539 128 128 128 255 
-0.182289 0.267827 1.539 128 128 128 255 
-0.179325 0.267827 1.539 128 128 128 255 
-0.176362 0.267827 1.539 128 128 128 255 
-0.173398 0.267827 1.539 128 128 128 255 
-0.170434 0.267827 1.539 128 128 128 255 
-0.167471 0.267827 1.539 128 128 128 255 
-0.164507 0.267827 1.539 128 128 128 255 
-0.161544 0.267827 1.539 128 128 128 255 
-0.15858 0.267827 1.539 128 128 128 255 
-0.155616 0.267827 1.539 128 128 128 255 
-0.152653 0.267827 1.539 128 128 128 255 
-0.149689 0.267827 1.539 128 128 128 255 
-0.146726 0.267827 1.539 128 128 128 255 
-0.143762 0.267827 1.539 128 128 128 255 
-0.140799 0.267827 1.539 128 128 128 255 
-0.137835 0.267827 1.539 128 128 128 255 
-0.134871 0.267827 1.539 128 128 128 255 
-0.131908 0.267827 1.539 128 128 128 255 
-0.128944 0.267827 1.539 128 128 128 255 
-0.125981 0.267827 1.539 128 128 128 255 
-0.123017 0.267827 1.539 128 128 128 255 
-0.120053 0.267827 1.539 128 128 128 255 
-0.116557 0.266609 1.532 128 128 128 255 
-0.114126 0.267827 1.539 128 128 128 255 
-0.110657 0.266609 1.532 128 128 128 255 
-0.107707 0.266609 1.532 128 128 128 255 
-0.104757 0.266609 1.532 128 128 128 255 
-0.101807 0.266609 1.532 128 128 128 255 
-0.0993083 0.267827 1.539 128 128 128 255 
-0.096783 0.269046 1.546 128 128 128 255 
-0.0938059 0.269046 1.546 128 128 128 255 
-0.0908289 0.269046 1.546 128 128 128 255 
-0.0878518 0.269046 1.546 128 128 128 255 
-0.0848747 0.269046 1.546 128 128 128 255 
-0.0818977 0.269046 1.546 128 128 128 255 
-0.0789206 0.269046 1.546 128 128 128 255 
-0.0759435 0.269046 1.546 128 128 128 255 
-0.0729664 0.269046 1.546 128 128 128 255 
-0.0699894 0.269046 1.546 128 128 128 255 
-0.0667089 0.267827 1.539 128 128 128 255 
-0.0640353 0.269046 1.546 128 128 128 255 
-0.0607817 0.267827 1.539 128 128 128 255 
-0.0578181 0.267827 1.539 128 128 128 255 
-0.0548546 0.267827 1.539 128 128 128 255 
-0.051891 0.267827 1.539 128 128 128 255 
-0.0489274 0.267827 1.539 128 128 128 255 
-0.0459638 0.267827 1.539 128 128 128 255 
-0.0431958 0.269046 1.546 128 128 128 255 
-0.0400366 0.267827 1.539 128 128 128 255 
-0.0372417 0.269046 1.546 128 128 128 255 
-0.0341095 0.267827 1.539 128 128 128 255 
-0.0311459 0.267827 1.539 128 128 128 255 
-0.0281823 0.267827 1.539 128 128 128 255 
-0.0252187 0.267827 1.539 128 128 128 255 
-0.0222551 0.267827 1.539 128 128 128 255 
-0.0192915 0.267827 1.539 128 128 128 255 
-0.0163279 0.267827 1.539 128 128 128 255 
-0.0133644 0.267827 1.539 128 128 128 255 
-0.0104481 0.269046 1.546 128 128 128 255 
-0.00747101 0.269046 1.546 128 128 128 255 
-0.00412478 0.246944 1.419 128 128 128 255 
-0.00140405 0.249032 1.431 128 128 128 255 
0.00135157 0.249032 1.431 128 128 128 255 
0.00410719 0.249032 1.431 128 128 128 255 
0.0068628 0.249032 1.431 128 128 128 255 
0.00957809 0.247988 1.425 128 128 128 255 
0.0122703 0.246944 1.419 128 128 128 255 
0.0150028 0.246944 1.419 128 128 128 255 
0.0177353 0.246944 1.419 128 128 128 255 
0.0204678 0.246944 1.419 128 128 128 255 
0.0232003 0.246944 1.419 128 128 128 255 
0.0258231 0.2459 1.413 128 128 128 255 
0.0285441 0.2459 1.413 128 128 128 255 
0.0312651 0.2459 1.413 128 128 128 255 
0.033986 0.2459 1.413 128 128 128 255 
0.0364212 0.243986 1.402 128 128 128 255 
0.039121 0.243986 1.402 128 128 128 255 
0.0416418 0.242941 1.396 128 128 128 255 
0.04433 0.242941 1.396 128 128 128 255 
0.0468161 0.241897 1.39 128 128 128 255 
0.0494928 0.241897 1.39 128 128 128 255 
0.0521694 0.241897 1.39 128 128 128 255 
0.0548461 0.241897 1.39 128 128 128 255 
0.0573159 0.241027 1.385 128 128 128 255 
0.0599829 0.241027 1.385 128 128 128 255 
0.0623785 0.239983 1.379 128 128 128 255 
0.0647982 0.239113 1.374 128 128 128 255 
0.067444 0.239113 1.374 128 128 128 255 
0.0700899 0.239113 1.374 128 128 128 255 
0.0727357 0.239113 1.374 128 128 128 255 
0.0750524 0.238069 1.368 128 128 128 255 
0.0776867 0.238069 1.368 128 128 128 255 
0.080321 0.238069 1.368 128 128 128 255 
0.0829553 0.238069 1.368 128 128 128 255 
0.0852768 0.237199 1.363 128 128 128 255 
0.0879015 0.237199 1.363 128 128 128 255 
0.090194 0.236328 1.358 128 128 128 255 
0.0928091 0.236328 1.358 128 128 128 255 
0.0950025 0.235284 1.352 128 128 128 255 
0.097606 0.235284 1.352 128 128 128 255 
0.10021 0.235284 1.352 128 128 128 255 
0.102433 0.234414 1.347 128 128 128 255 
0.105027 0.234414 1.347 128 128 128 255 
0.10762 0.234414 1.347 128 128 128 255 
0.109805 0.233544 1.342 128 128 128 255 
0.112389 0.233544 1.342 128 128 128 255 
0.114974 0.233544 1.342 128 128 128 255 
0.117558 0.233544 1.342 128 128 128 255 
0.119605 0.2325 1.336 128 128 128 255 
0.12172 0.23163 1.331 128 128 128 255 
0.124283 0.23163 1.331 128 128 128 255 
0.126847 0.23163 1.331 128 128 128 255 
0.12941 0.23163 1.331 128 128 128 255 
0.131477 0.23076 1.326 128 128 128 255 
0.13403 0.23076 1.326 128 128 128 255 
0.136584 0.23076 1.326 128 128 128 255 
0.138612 0.229889 1.321 128 128 128 255 
0.141156 0.229889 1.321 128 128 128 255 
0.143156 0.229019 1.316 128 128 128 255 
0.14569 0.229019 1.316 128 128 128 255 
0.147661 0.228149 1.311 128 128 128 255 
0.150186 0.228149 1.311 128 128 128 255 
0.15271 0.228149 1.311 128 128 128 255 
0.155235 0.228149 1.311 128 128 128 255 
0.157158 0.227279 1.306 128 128 128 255 
0.159673 0.227279 1.306 128 128 128 255 
0.162188 0.227279 1.306 128 128 128 255 
0.164072 0.226409 1.301 128 128 128 255 
0.166577 0.226409 1.301 128 128 128 255 
0.168433 0.225539 1.296 128 128 128 255 
0.170928 0.225539 1.296 128 128 128 255 
0.172755 0.224669 1.291 128 128 128 255 
0.175241 0.224669 1.291 128 128 128 255 
0.177176 0.223973 1.287 128 128 128 255 
0.179655 0.223973 1.287 128 128 128 255 
0.182133 0.223973 1.287 128 128 128 255 
0.183894 0.223102 1.282 128 128 128 255 
0.185636 0.222232 1.277 128 128 128 255 
0.188095 0.222232 1.277 128 128 128 255 
0.190554 0.222232 1.277 128 128 128 255 
0.192257 0.221362 1.272 128 128 128 255 
0.194707 0.221362 1.272 128 128 128 255 
0.197156 0.221362 1.272 128 128 128 255 
0.198978 0.220666 1.268 128 128 128 255 
0.20142 0.220666 1.268 128 128 128 255 
0.203058 0.219796 1.263 128 128 128 255 
0.20549 0.219796 1.263 128 128 128 255 
0.207922 0.219796 1.263 128 128 128 255 
0.209688 0.2191 1.259 128 128 128 255 
0.212112 0.2191 1.259 128 128 128 255 
0.213684 0.21823 1.254 128 128 128 255 
0.216099 0.21823 1.254 128 128 128 255 
0.217643 0.21736 1.249 128 128 128 255 
0.220048 0.21736 1.249 128 128 128 255 
0.222453 0.21736 1.249 128 128 128 255 
0.224138 0.216663 1.245 128 128 128 255 
0.226536 0.216663 1.245 128 128 128 255 
0.228014 0.215793 1.24 128 128 128 255 
0.230401 0.215793 1.24 128 128 128 255 
0.232038 0.215097 1.236 128 128 128 255 
0.234418 0.215097 1.236 128 128 128 255 
0.236798 0.215097 1.236 128 128 128 255 
0.238405 0.214401 1.232 128 128 128 255 
0.2398 0.213531 1.227 128 128 128 255 
0.242163 0.213531 1.227 128 128 128 255 
0.244525 0.213531 1.227 128 128 128 255 
0.246888 0.213531 1.227 128 128 128 255 
0.248438 0.212835 1.223 128 128 128 255 
0.250793 0.212835 1.223 128 128 128 255 
0.253148 0.212835 1.223 128 128 128 255 
0.254668 0.212139 1.219 128 128 128 255 
0.257015 0.212139 1.219 128 128 128 255 
0.258299 0.211269 1.214 128 128 128 255 
0.260637 0.211269 1.214 128 128 128 255 
0.262108 0.210573 1.21 128 128 128 255 
0.264438 0.210573 1.21 128 128 128 255 
0.265886 0.209876 1.206 128 128 128 255 
0.268208 0.209876 1.206 128 128 128 255 
0.270531 0.209876 1.206 128 128 128 255 
0.271948 0.20918 1.202 128 128 128 255 
0.274263 0.20918 1.202 128 128 128 255 
0.277498 0.209876 1.206 128 128 128 255 
0.280748 0.210573 1.21 128 128 128 255 
0.285184 0.212139 1.219 128 128 128 255 
0.288475 0.212835 1.223 128 128 128 255 
0.291781 0.213531 1.227 128 128 128 255 
0.294144 0.213531 1.227 128 128 128 255 
0.299648 0.215793 1.24 128 128 128 255 
0.302036 0.215793 1.24 128 128 128 255 
0.304424 0.215793 1.24 128 128 128 255 
0.309038 0.21736 1.249 128 128 128 255 
0.311443 0.21736 1.249 128 128 128 255 
0.383202 0.265391 1.525 128 128 128 255 
0.386138 0.265391 1.525 128 128 128 255 
0.389075 0.265391 1.525 128 128 128 255 
0.392012 0.265391 1.525 128 128 128 255 
0.394948 0.265391 1.525 128 128 128 255 
0.397885 0.265391 1.525 128 128 128 255 
0.400822 0.265391 1.525 128 128 128 255 
0.403758 0.265391 1.525 128 128 128 255 
0.406695 0.265391 1.525 128 128 128 255 
0.409631 0.265391 1.525 128 128 128 255 
0.412568 0.265391 1.525 128 128 128 255 
0.415505 0.265391 1.525 128 128 128 255 
0.418441 0.265391 1.525 128 128 128 255 
0.421378 0.265391 1.525 128 128 128 255 
0.424315 0.265391 1.525 128 128 128 255 
0.427251 0.265391 1.525 128 128 128 255 
0.430188 0.265391 1.525 128 128 128 255 
0.433124 0.265391 1.525 128 128 128 255 
0.436061 0.265391 1.525 128 128 128 255 
0.438998 0.265391 1.525 128 128 128 255 
0.441934 0.265391 1.525 128 128 128 255 
0.444871 0.265391 1.525 128 128 128 255 
0.447808 0.265391 1.525 128 128 128 255 
0.450744 0.265391 1.525 128 128 128 255 
0.453681 0.265391 1.525 128 128 128 255 
0.454821 0.264347 1.519 128 128 128 255 
0.457746 0.264347 1.519 128 128 128 255 
0.460671 0.264347 1.519 128 128 128 255 
0.463596 0.264347 1.519 128 128 128 255 
0.466521 0.264347 1.519 128 128 128 255 
0.471301 0.265391 1.525 128 128 128 255 
0.474237 0.265391 1.525 128 128 128 255 
0.477174 0.265391 1.525 128 128 128 255 
0.480111 0.265391 1.525 128 128 128 255 
0.483047 0.265391 1.525 128 128 128 255 
0.485984 0.265391 1.525 128 128 128 255 
0.48892 0.265391 1.525 128 128 128 255 
0.491857 0.265391 1.525 128 128 128 255 
0.494794 0.265391 1.525 128 128 128 255 
0.49773 0.265391 1.525 128 128 128 255 
0.500667 0.265391 1.525 128 128 128 255 
0.503604 0.265391 1.525 128 128 128 255 
0.50654 0.265391 1.525 128 128 128 255 
0.509477 0.265391 1.525 128 128 128 255 
0.512413 0.265391 1.525 128 128 128 255 
0.517716 0.266609 1.532 128 128 128 255 
0.520666 0.266609 1.532 128 128 128 255 
0.523616 0.266609 1.532 128 128 128 255 
0.526566 0.266609 1.532 128 128 128 255 
0.527097 0.265391 1.525 128 128 128 255 
0.530033 0.265391 1.525 128 128 128 255 
0.53297 0.265391 1.525 128 128 128 255 
0.535906 0.265391 1.525 128 128 128 255 
0.538843 0.265391 1.525 128 128 128 255 
0.54178 0.265391 1.525 128 128 128 255 
0.542573 0.264347 1.519 128 128 128 255 
0.547653 0.265391 1.525 128 128 128 255 
0.553117 0.266609 1.532 128 128 128 255 
0.553526 0.265391 1.525 128 128 128 255 
0.556463 0.265391 1.525 128 128 128 255 
0.559399 0.265391 1.525 128 128 128 255 
0.562336 0.265391 1.525 128 128 128 255 
0.565273 0.265391 1.525 128 128 128 255 
0.568209 0.265391 1.525 128 128 128 255 
0.568899 0.264347 1.519 128 128 128 255 
0.571824 0.264347 1.519 128 128 128 255 
0.577019 0.265391 1.525 128 128 128 255 
0.577674 0.264347 1.519 128 128 128 255 
0.580599 0.264347 1.519 128 128 128 255 
0.583524 0.264347 1.519 128 128 128 255 
0.586449 0.264347 1.519 128 128 128 255 
0.589374 0.264347 1.519 128 128 128 255 
0.592299 0.264347 1.519 128 128 128 255 
0.595224 0.264347 1.519 128 128 128 255 
0.59815 0.264347 1.519 128 128 128 255 
0.601075 0.264347 1.519 128 128 128 255 
0.606385 0.265391 1.525 128 128 128 255 
0.609322 0.265391 1.525 128 128 128 255 
0.615069 0.266609 1.532 128 128 128 255 
0.615195 0.265391 1.525 128 128 128 255 
0.620969 0.266609 1.532 128 128 128 255 
0.621069 0.265391 1.525 128 128 128 255 
0.626869 0.266609 1.532 128 128 128 255 
0.62982 0.266609 1.532 128 128 128 255 
0.63277 0.266609 1.532 128 128 128 255 
0.63572 0.266609 1.532 128 128 128 255 
0.635752 0.265391 1.525 128 128 128 255 
0.638688 0.265391 1.525 128 128 128 255 
0.641625 0.265391 1.525 128 128 128 255 
0.644562 0.265391 1.525 128 128 128 255 
0.647498 0.265391 1.525 128 128 128 255 
0.65342 0.266609 1.532 128 128 128 255 
0.656371 0.266609 1.532 128 128 128 255 
0.656308 0.265391 1.525 128 128 128 255 
0.662271 0.266609 1.532 128 128 128 255 
0.665221 0.266609 1.532 128 128 128 255 
0.665118 0.265391 1.525 128 128 128 255 
0.665426 0.264347 1.519 128 128 128 255 
0.668351 0.264347 1.519 128 128 128 255 
0.668183 0.263129 1.512 128 128 128 255 
0.671094 0.263129 1.512 128 128 128 255 
0.674006 0.263129 1.512 128 128 128 255 
0.676918 0.263129 1.512 128 128 128 255 
0.679829 0.263129 1.512 128 128 128 255 
0.682741 0.263129 1.512 128 128 128 255 
0.685652 0.263129 1.512 128 128 128 255 
0.688564 0.263129 1.512 128 128 128 255 
0.691476 0.263129 1.512 128 128 128 255 
0.694387 0.263129 1.512 128 128 128 255 
-0.326017 0.272029 1.546 128 128 128 255 
-0.321577 0.270797 1.539 128 128 128 255 
-0.318614 0.270797 1.539 128 128 128 255 
-0.31565 0.270797 1.539 128 128 128 255 
-0.312687 0.270797 1.539 128 128 128 255 
-0.309723 0.270797 1.539 128 128 128 255 
-0.306759 0.270797 1.539 128 128 128 255 
-0.303796 0.270797 1.539 128 128 128 255 
-0.299464 0.269566 1.532 128 128 128 255 
-0.297869 0.270797 1.539 128 128 128 255 
-0.293564 0.269566 1.532 128 128 128 255 
-0.291941 0.270797 1.539 128 128 128 255 
-0.288978 0.270797 1.539 128 128 128 255 
-0.286014 0.270797 1.539 128 128 128 255 
-0.283051 0.270797 1.539 128 128 128 255 
-0.280087 0.270797 1.539 128 128 128 255 
-0.277123 0.270797 1.539 128 128 128 255 
-0.27416 0.270797 1.539 128 128 128 255 
-0.271196 0.270797 1.539 128 128 128 255 
-0.268233 0.270797 1.539 128 128 128 255 
-0.265269 0.270797 1.539 128 128 128 255 
-0.262306 0.270797 1.539 128 128 128 255 
-0.259342 0.270797 1.539 128 128 128 255 
-0.256378 0.270797 1.539 128 128 128 255 
-0.253415 0.270797 1.539 128 128 128 255 
-0.250451 0.270797 1.539 128 128 128 255 
-0.247488 0.270797 1.539 128 128 128 255 
-0.244524 0.270797 1.539 128 128 128 255 
-0.24156 0.270797 1.539 128 128 128 255 
-0.238597 0.270797 1.539 128 128 128 255 
-0.234562 0.269566 1.532 128 128 128 255 
-0.231611 0.269566 1.532 128 128 128 255 
-0.228661 0.269566 1.532 128 128 128 255 
-0.225711 0.269566 1.532 128 128 128 255 
-0.222761 0.269566 1.532 128 128 128 255 
-0.220815 0.270797 1.539 128 128 128 255 
-0.217852 0.270797 1.539 128 128 128 255 
-0.214888 0.270797 1.539 128 128 128 255 
-0.210961 0.269566 1.532 128 128 128 255 
-0.208961 0.270797 1.539 128 128 128 255 
-0.205997 0.270797 1.539 128 128 128 255 
-0.203034 0.270797 1.539 128 128 128 255 
-0.19916 0.269566 1.532 128 128 128 255 
-0.19621 0.269566 1.532 128 128 128 255 
-0.194143 0.270797 1.539 128 128 128 255 
-0.19031 0.269566 1.532 128 128 128 255 
-0.18736 0.269566 1.532 128 128 128 255 
-0.18441 0.269566 1.532 128 128 128 255 
-0.18146 0.269566 1.532 128 128 128 255 
-0.17851 0.269566 1.532 128 128 128 255 
-0.175559 0.269566 1.532 128 128 128 255 
-0.172609 0.269566 1.532 128 128 128 255 
-0.169659 0.269566 1.532 128 128 128 255 
-0.166709 0.269566 1.532 128 128 128 255 
-0.163759 0.269566 1.532 128 128 128 255 
-0.160809 0.269566 1.532 128 128 128 255 
-0.157859 0.269566 1.532 128 128 128 255 
-0.154909 0.269566 1.532 128 128 128 255 
-0.152653 0.270797 1.539 128 128 128 255 
-0.149689 0.270797 1.539 128 128 128 255 
-0.146726 0.270797 1.539 128 128 128 255 
-0.143762 0.270797 1.539 128 128 128 255 
-0.140799 0.270797 1.539 128 128 128 255 
-0.137835 0.270797 1.539 128 128 128 255 
-0.134871 0.270797 1.539 128 128 128 255 
-0.131908 0.270797 1.539 128 128 128 255 
-0.128944 0.270797 1.539 128 128 128 255 
-0.125981 0.270797 1.539 128 128 128 255 
-0.122458 0.269566 1.532 128 128 128 255 
-0.119507 0.269566 1.532 128 128 128 255 
-0.116557 0.269566 1.532 128 128 128 255 
-0.113607 0.269566 1.532 128 128 128 255 
-0.110657 0.269566 1.532 128 128 128 255 
-0.107707 0.269566 1.532 128 128 128 255 
-0.104757 0.269566 1.532 128 128 128 255 
-0.101807 0.269566 1.532 128 128 128 255 
-0.0988567 0.269566 1.532 128 128 128 255 
-0.0963448 0.270797 1.539 128 128 128 255 
-0.0933812 0.270797 1.539 128 128 128 255 
-0.0908289 0.272029 1.546 128 128 128 255 
-0.087454 0.270797 1.539 128 128 128 255 
