ply
format ascii 1.0
comment PCL generated
element vertex 1445
property float x
property float y
property float z
element camera 0
property float view_px
property float view_py
property float view_pz
property float x_axisx
property float x_axisy
property float x_axisz
property float y_axisx
property float y_axisy
property float y_axisz
property float z_axisx
property float z_axisy
property float z_axisz
property float focal
property float scalex
property float scaley
property float centerx
property float centery
property int viewportx
property int viewporty
property float k1
property float k2
end_header
0.74115318 0.68476129 0.20975919
0.80042815 0.68185991 0.19518377
0.055843752 0.71375102 0.34664136
0.055399317 0.72074872 0.38149559
0.055321936 0.72291154 0.39226878
0.027156247 0.74619383 0.50823832
0.093674488 0.74619383 0.50823832
0.096919112 0.74619383 0.50823832
0.10340882 0.74619383 0.50823832
0.1088594 0.74886543 0.52154636
0.12578337 0.74746573 0.51457548
0.14883673 0.74619383 0.50823832
0.15188073 0.74746573 0.51457548
0.18290779 0.74619383 0.50823832
0.24563168 0.74364901 0.49556407
0.25655761 0.7423771 0.48922694
0.27933881 0.74364901 0.49556407
0.37711617 0.68766993 0.21673006
0.39833695 0.68690681 0.21292774
0.40321222 0.68690681 0.21292774
0.40930605 0.68690681 0.21292774
0.42393094 0.68690681 0.21292774
0.48730716 0.68690681 0.21292774
0.49828902 0.68766993 0.21673006
0.52630782 0.68690681 0.21292774
0.55249161 0.68130875 0.18504441
0.56844121 0.67723757 0.16476554
0.58720315 0.67163956 0.13688211
0.59604776 0.66973114 0.12737642
0.60720801 0.66680527 0.11280101
0.60937172 0.66680527 0.11280101
0.61528832 0.66464245 0.1020279
0.68650329 0.68627024 0.20975919
0.68893236 0.68627024 0.20975919
0.69535863 0.68550718 0.20595695
0.69864774 0.68627024 0.20975919
0.72658002 0.68627024 0.20975919
0.75582075 0.68550718 0.20595695
0.75944865 0.68550718 0.20595695
0.76307601 0.68550718 0.20595695
0.77515721 0.68627024 0.20975919
0.78726119 0.68550718 0.20595695
0.79804635 0.684744 0.20215464
0.80162293 0.68334436 0.19518377
0.054027777 0.7080515 0.30988592
0.052196972 0.71074593 0.32319394
0.054363355 0.71356863 0.33713567
0.051639177 0.7154932 0.34664136
0.054567125 0.71947062 0.36628652
0.035266709 0.74820995 0.50823832
0.03933768 0.74692684 0.50190121
0.059603434 0.74820995 0.50823832
0.07322564 0.74692684 0.50190121
0.080695078 0.74820995 0.50823832
0.085562229 0.74820995 0.50823832
0.096919112 0.74820995 0.50823832
0.09854164 0.74820995 0.50823832
0.15208182 0.74820995 0.50823832
0.16506121 0.74820995 0.50823832
0.17812024 0.74692684 0.50190121
0.2055545 0.74692684 0.50190121
0.20716804 0.74692684 0.50190121
0.21523708 0.74692684 0.50190121
0.24081671 0.74564379 0.49556407
0.28689012 0.7443608 0.48922694
0.29167947 0.7443608 0.48922694
0.35508487 0.68919116 0.21673006
0.3612048 0.68919116 0.21673006
0.37761775 0.68842137 0.21292774
0.38249302 0.68842137 0.21292774
0.39868152 0.68777978 0.20975919
0.39989561 0.68777978 0.20975919
0.40475333 0.68777978 0.20975919
0.41174325 0.68842137 0.21292774
0.41568333 0.68777978 0.20975919
0.4300248 0.68842137 0.21292774
0.43246245 0.68842137 0.21292774
0.43368149 0.68842137 0.21292774
0.43611866 0.68842137 0.21292774
0.4373377 0.68842137 0.21292774
0.44604462 0.68777978 0.20975919
0.44968781 0.68777978 0.20975919
0.46049419 0.68842137 0.21292774
0.46768984 0.68919116 0.21673006
0.47146314 0.68842137 0.21292774
0.47268191 0.68842137 0.21292774
0.48974469 0.68842137 0.21292774
0.49705732 0.68842137 0.21292774
0.58223295 0.67418003 0.14258558
0.58335578 0.67418003 0.14258558
0.58637053 0.67353845 0.13941701
0.5935089 0.67238373 0.13371354
0.6026513 0.6694327 0.11913814
0.66391855 0.68700999 0.20595695
0.67601097 0.68700999 0.20595695
0.69535863 0.68700999 0.20595695
0.69656819 0.68700999 0.20595695
0.71591586 0.68700999 0.20595695
0.72921735 0.68700999 0.20595695
0.75590491 0.6862402 0.20215464
0.79215848 0.68559861 0.19898608
0.79694104 0.68418729 0.1920152
0.79813135 0.68418729 0.1920152
0.053405657 0.71063656 0.31432196
0.05475245 0.72538608 0.3865653
0.056785684 0.72655028 0.39226878
0.065156572 0.7489329 0.50190121
0.081294246 0.7489329 0.50190121
0.1071145 0.7489329 0.50190121
0.126123 0.75022656 0.50823832
0.13585733 0.75022656 0.50823832
0.17489269 0.7489329 0.50190121
0.18134776 0.7489329 0.50190121
0.21352999 0.7476387 0.49556407
0.3593362 0.68993646 0.21292774
0.36908627 0.68993646 0.21292774
0.40839696 0.68928939 0.20975919
0.41723296 0.68851286 0.20595695
0.46658802 0.68993646 0.21292774
0.50798082 0.68928939 0.20975919
0.54021859 0.68708974 0.19898608
0.56232035 0.68217337 0.17490497
0.56755912 0.68075037 0.16793409
0.57869732 0.67751592 0.15209126
0.58860707 0.67492807 0.13941701
0.58943254 0.67441094 0.13688211
0.61139554 0.66781271 0.10456272
0.67359221 0.68851286 0.20595695
0.68447542 0.68851286 0.20595695
0.68568498 0.68851286 0.20595695
0.74627262 0.68773687 0.20215464
0.75616711 0.68708974 0.19898608
0.76696444 0.68708974 0.19898608
0.7727614 0.68773687 0.20215464
0.78359783 0.68773687 0.20215464
0.78735977 0.68708974 0.19898608
0.79456103 0.68566668 0.1920152
0.050827686 0.71414989 0.32319394
0.054329626 0.72106445 0.35678074
0.033759769 0.74963415 0.49556407
0.051414277 0.74963415 0.49556407
0.055473987 0.75093842 0.50190121
0.065860115 0.74963415 0.49556407
0.084521793 0.75093842 0.50190121
0.1071145 0.75093842 0.50190121
0.1163882 0.75224316 0.50823832
0.21513498 0.74963415 0.49556407
0.22941799 0.74832928 0.48922694
0.24218959 0.74832928 0.48922694
0.2530894 0.74702448 0.48288974
0.25785267 0.74702448 0.48288974
0.37490979 0.69001567 0.20595695
0.39063001 0.69001567 0.20595695
0.40071163 0.68923301 0.20215464
0.43174404 0.69001567 0.20595695
0.47285828 0.69001567 0.20595695
0.47527677 0.69001567 0.20595695
0.51405299 0.69079888 0.20975919
0.52848345 0.69001567 0.20595695
0.53556478 0.68923301 0.20215464
0.53661942 0.68858087 0.19898608
0.54581249 0.68714607 0.1920152
0.55367196 0.68571079 0.18504441
0.61889011 0.66914326 0.10456272
0.66921359 0.68923301 0.20215464
0.67884618 0.68923301 0.20215464
0.68968266 0.68923301 0.20215464
0.70774335 0.68923301 0.20215464
0.71255922 0.68923301 0.20215464
0.71617138 0.68923301 0.20215464
0.73457211 0.68858087 0.19898608
0.76698196 0.68779826 0.19518377
0.78256047 0.68858087 0.19898608
0.78251052 0.68779826 0.19518377
0.055299897 0.72584856 0.37135616
0.054618418 0.72690064 0.37642586
0.036247332 0.75031358 0.48922694
0.060315508 0.75294381 0.50190121
0.078700967 0.75162894 0.49556407
0.083516419 0.75162894 0.49556407
0.099567257 0.75162894 0.49556407
0.1011727 0.75162894 0.49556407
0.11080311 0.75162894 0.49556407
0.1163882 0.75425923 0.50823832
0.15253569 0.75162894 0.49556407
0.15714151 0.75294381 0.50190121
0.16521011 0.75294381 0.50190121
0.36832023 0.69230783 0.20975919
0.43803719 0.69072974 0.20215464
0.45471966 0.69151908 0.20595695
0.45592892 0.69151908 0.20595695
0.45834738 0.69151908 0.20595695
0.45955658 0.69151908 0.20595695
0.46439359 0.69151908 0.20595695
0.49462461 0.69151908 0.20595695
0.50550777 0.69151908 0.20595695
0.50671703 0.69151908 0.20595695
0.51034474 0.69151908 0.20595695
0.51518172 0.69151908 0.20595695
0.52122796 0.69151908 0.20595695
0.54141814 0.690072 0.19898608
0.54381794 0.690072 0.19898608
0.54700232 0.68862498 0.1920152
0.56844121 0.68296945 0.16476554
0.5809685 0.68033862 0.15209126
0.59128767 0.6765241 0.13371354
0.62978005 0.67468262 0.12484159
0.64764148 0.69230783 0.20975919
0.65356129 0.69072974 0.20215464
0.66800982 0.69072974 0.20215464
0.7153765 0.690072 0.19898608
0.7168119 0.68928266 0.19518377
0.72159004 0.68928266 0.19518377
0.73337245 0.690072 0.19898608
0.7610091 0.68928266 0.19518377
0.7681762 0.68928266 0.19518377
0.052795257 0.71662617 0.31875795
0.054084457 0.71861488 0.32826364
0.060593493 0.73306936 0.39733842
0.044231832 0.75229782 0.48922694
0.053809606 0.75229782 0.48922694
0.06817764 0.75229782 0.48922694
0.071370542 0.75229782 0.48922694
0.072966978 0.75229782 0.48922694
0.096357271 0.75362384 0.49556407
0.10759313 0.75362384 0.49556407
0.11080311 0.75362384 0.49556407
0.11561856 0.75362384 0.49556407
0.12970725 0.75494987 0.50190121
0.13616231 0.75494987 0.50190121
0.16521011 0.75494987 0.50190121
0.16843763 0.75494987 0.50190121
0.18618931 0.75494987 0.50190121
0.20863134 0.75097126 0.48288974
0.21345353 0.75229782 0.48922694
0.21504997 0.75229782 0.48922694
0.21974574 0.75097126 0.48288974
0.23403595 0.75097126 0.48288974
0.24197501 0.75097126 0.48288974
0.26217824 0.74977803 0.47718635
0.26691812 0.74977803 0.47718635
0.3754271 0.69222587 0.20215464
0.40705061 0.69156319 0.19898608
0.41636437 0.69222587 0.20215464
0.48860705 0.69222587 0.20215464
0.51630008 0.69222587 0.20215464
0.52472842 0.69222587 0.20215464
0.53901887 0.69156319 0.19898608
0.55151629 0.68930888 0.18821298
0.55698669 0.68798292 0.18187584
0.57390934 0.6837393 0.16159697
0.58177328 0.68108732 0.14892271
0.59935308 0.67657822 0.12737642
0.64698923 0.69302195 0.20595695
0.66618848 0.69156319 0.19898608
0.69531089 0.69076771 0.19518377
0.70817828 0.69156319 0.19898608
0.71083957 0.69076771 0.19518377
0.74309146 0.69076771 0.19518377
0.75052398 0.69010437 0.1920152
0.75647479 0.69010437 0.1920152
0.052141178 0.72126138 0.33269963
0.049853366 0.75294495 0.48288974
0.057792418 0.75294495 0.48288974
0.070494726 0.75294495 0.48288974
0.093720362 0.75428152 0.48922694
0.10489549 0.75428152 0.48922694
0.11607064 0.75428152 0.48922694
0.12163863 0.75695533 0.50190121
0.14290525 0.75561875 0.49556407
0.15438539 0.75428152 0.48922694
0.15757827 0.75428152 0.48922694
0.15895611 0.75561875 0.49556407
0.16377154 0.75561875 0.49556407
0.18303284 0.75561875 0.49556407
0.18463783 0.75561875 0.49556407
0.20228016 0.75294495 0.48288974
0.21657039 0.75294495 0.48288974
0.26974124 0.75040507 0.47084922
0.30848831 0.74906784 0.46451211
0.35677126 0.69452477 0.20595695
0.3914541 0.69305426 0.19898608
0.42144698 0.69305426 0.19898608
0.43464366 0.69305426 0.19898608
0.45971 0.69372261 0.20215464
0.4741585 0.69372261 0.20215464
0.49582916 0.69305426 0.19898608
0.50666773 0.69372261 0.20215464
0.52702177 0.69305426 0.19898608
0.54462224 0.69158381 0.1920152
0.55033147 0.69078159 0.18821298
0.55485272 0.69011331 0.18504441
0.57869732 0.68316138 0.15209126
0.5946191 0.67928487 0.13371354
0.60483247 0.67620999 0.11913814
0.61045355 0.67487288 0.11280101
0.65350276 0.6922521 0.19518377
0.65947521 0.6922521 0.19518377
0.6917271 0.6922521 0.19518377
0.70053613 0.69158381 0.1920152
0.72672033 0.69158381 0.1920152
0.73267114 0.69158381 0.1920152
0.74338293 0.69158381 0.1920152
0.75533402 0.69078159 0.18821298
0.78969884 0.69078159 0.18821298
0.04730057 0.75370532 0.47718635
0.067318931 0.7549181 0.48288974
0.074159928 0.75370532 0.47718635
0.075257987 0.7549181 0.48288974
0.093720362 0.75626582 0.48922694
0.15757827 0.75626582 0.48922694
0.15917474 0.75626582 0.48922694
0.18463783 0.7576136 0.49556407
0.26188451 0.75235808 0.47084922
0.27131251 0.75235808 0.47084922
0.28545427 0.75235808 0.47084922
0.29754931 0.75101036 0.46451211
0.30536288 0.75101036 0.46451211
0.37945715 0.69454539 0.19898608
0.39385349 0.69454539 0.19898608
0.41184938 0.69454539 0.19898608
0.42384639 0.69454539 0.19898608
0.45282406 0.69373655 0.19518377
0.45730186 0.69521928 0.20215464
0.50418824 0.69373655 0.19518377
0.53510064 0.69306266 0.1920152
0.57161206 0.68659437 0.16159697
0.57787591 0.68524659 0.15525983
0.58210433 0.68457276 0.15209126
0.58784604 0.68255168 0.14258558
0.59755021 0.67999113 0.13054499
0.61045355 0.67621785 0.11280101
0.61261725 0.67621785 0.11280101
0.61606789 0.67500508 0.10709762
0.65173852 0.69306266 0.1920152
0.66364062 0.69306266 0.1920152
0.68982482 0.69306266 0.1920152
0.69577563 0.69306266 0.1920152
0.69696581 0.69306266 0.1920152
0.72570956 0.6922543 0.18821298
0.74576342 0.69306266 0.1920152
0.7648142 0.6922543 0.18821298
0.053558592 0.72673553 0.34220532
0.061041523 0.73298401 0.37135616
0.028339298 0.75566894 0.47718635
0.032473277 0.75431055 0.47084922
0.033080515 0.75566894 0.47718635
0.065731473 0.75689173 0.48288974
0.10701375 0.75689173 0.48288974
0.11495234 0.75689173 0.48288974
0.12289143 0.75689173 0.48288974
0.19269969 0.75825012 0.48922694
0.23373862 0.75566894 0.47718635
0.23988602 0.75431055 0.47084922
0.24163854 0.75566894 0.47718635
0.26785916 0.75295216 0.46451211
0.27410954 0.75295216 0.46451211
0.28036037 0.75295216 0.46451211
0.4002654 0.69522154 0.19518377
0.41459966 0.69522154 0.19518377
0.42176682 0.69522154 0.19518377
0.42296115 0.69522154 0.19518377
0.43012828 0.69522154 0.19518377
0.43132254 0.69522154 0.19518377
0.45043504 0.69522154 0.19518377
0.47074184 0.69522154 0.19518377
0.4827325 0.69454205 0.1920152
0.49106377 0.69454205 0.1920152
0.50415581 0.69454205 0.1920152
0.51010674 0.69454205 0.1920152
0.5220086 0.69454205 0.1920152
0.53986138 0.69454205 0.1920152
0.54796129 0.69372702 0.18821298
0.55012995 0.69304758 0.18504441
0.57189995 0.68870085 0.16476554
0.60045522 0.68068677 0.12737642
0.60122263 0.68014342 0.12484159
0.61499417 0.67634004 0.10709762
0.62596726 0.67946398 0.12167303
0.65935016 0.69372702 0.18821298
0.66527534 0.69372702 0.18821298
0.69726992 0.69372702 0.18821298
0.70648742 0.69454205 0.1920152
0.71385968 0.69372702 0.18821298
0.71896392 0.69304758 0.18504441
0.74585432 0.69372702 0.18821298
0.75202245 0.69304758 0.18504441
0.76754868 0.69236869 0.18187584
0.025644856 0.75489467 0.46451211
0.046613675 0.75626355 0.47084922
0.06704092 0.75626355 0.47084922
0.066260017 0.75763309 0.47718635
0.069420077 0.75763309 0.47718635
0.074159928 0.75763309 0.47718635
0.086800165 0.75763309 0.47718635
0.13083048 0.75886482 0.48288974
0.14829604 0.75886482 0.48288974
0.16421914 0.75763309 0.47718635
0.17211275 0.75886482 0.48288974
0.1751392 0.76023436 0.48922694
0.18471789 0.76023436 0.48922694
0.23973125 0.75489467 0.46451211
0.25535792 0.75489467 0.46451211
0.27210331 0.75366235 0.45880863
0.28192309 0.75489467 0.46451211
0.29076135 0.75366235 0.45880863
0.30475515 0.75366235 0.45880863
0.30786481 0.75366235 0.45880863
0.31035146 0.75243002 0.45310524
0.37756962 0.69670594 0.19518377
0.38037658 0.69602144 0.1920152
0.38354203 0.69670594 0.19518377
0.38712582 0.69670594 0.19518377
0.39429298 0.69670594 0.19518377
0.41489208 0.69602144 0.1920152
0.42798394 0.69602144 0.1920152
0.43155468 0.69602144 0.1920152
0.45892876 0.69602144 0.1920152
0.46964046 0.69602144 0.1920152
0.47083059 0.69602144 0.1920152
0.48392266 0.69602144 0.1920152
0.48511285 0.69602144 0.1920152
0.49463701 0.69519979 0.18821298
0.51596677 0.69519979 0.18821298
0.52781659 0.69519979 0.18821298
0.53137159 0.69519979 0.18821298
0.53729653 0.69519979 0.18821298
0.57074708 0.69013393 0.16476554
0.58290416 0.68671101 0.14892271
0.58672369 0.68534201 0.14258558
0.58896881 0.68534201 0.14258558
0.6136995 0.67890722 0.11280101
0.61439854 0.67835945 0.11026619
0.61655504 0.67835945 0.11026619
0.62648511 0.68150848 0.12484159
0.64873999 0.69383079 0.18187584
0.67831004 0.69519979 0.18821298
0.67949492 0.69519979 0.18821298
0.6854201 0.69519979 0.18821298
0.68778974 0.69519979 0.18821298
0.6960851 0.69519979 0.18821298
0.7020098 0.69519979 0.18821298
0.71030468 0.69519979 0.18821298
0.72368664 0.69451529 0.18504441
0.74348414 0.69519979 0.18821298
0.74703914 0.69519979 0.18821298
0.77931225 0.69383079 0.18187584
0.79451293 0.69232464 0.17490497
0.061041523 0.736552 0.37135616
0.034043171 0.75821662 0.47084922
0.037187465 0.75821662 0.47084922
0.048184935 0.75821662 0.47084922
0.060025375 0.75683647 0.46451211
0.06389796 0.75821662 0.47084922
0.094311439 0.76083851 0.48288974
0.11049995 0.75959671 0.47718635
0.11839985 0.75959671 0.47718635
0.13400581 0.76083851 0.48288974
0.13718162 0.76083851 0.48288974
0.19116578 0.76083851 0.48288974
0.21657039 0.76083851 0.48288974
0.24910708 0.75683647 0.46451211
0.25848287 0.75683647 0.46451211
0.29387105 0.75559473 0.45880863
0.35845724 0.69819039 0.19518377
0.36665854 0.6966725 0.18821298
0.36784339 0.6966725 0.18821298
0.3832483 0.6966725 0.18821298
0.41050306 0.6966725 0.18821298
0.42116761 0.6966725 0.18821298
0.42235294 0.6966725 0.18821298
0.43894267 0.6966725 0.18821298
0.44960725 0.6966725 0.18821298
0.45790234 0.6966725 0.18821298
0.48989701 0.6966725 0.18821298
0.50767189 0.6966725 0.18821298
0.51004177 0.6966725 0.18821298
0.54085129 0.6966725 0.18821298
0.54440629 0.6966725 0.18821298
0.55012995 0.6959824 0.18504441
0.58672369 0.68673724 0.14258558
0.60045522 0.68342519 0.12737642
0.60232109 0.68287355 0.12484159
0.61091459 0.68094164 0.11596957
0.62286347 0.68094164 0.11596957
0.62800103 0.68342519 0.12737642
0.66819561 0.6959824 0.18504441
0.67646039 0.6959824 0.18504441
0.70990884 0.69529295 0.18187584
0.731951 0.6959824 0.18504441
0.73313177 0.6959824 0.18504441
0.73903489 0.6959824 0.18504441
0.74966079 0.6959824 0.18504441
0.75346321 0.69446456 0.17807354
0.76517457 0.69446456 0.17807354
0.77813596 0.69529295 0.18187584
0.77922809 0.69446456 0.17807354
0.78872263 0.69529295 0.18187584
0.79567981 0.693775 0.17490497
0.050068371 0.72679359 0.31875795
0.052196972 0.72776699 0.32319394
0.027210245 0.75877893 0.46451211
0.031897463 0.75877893 0.46451211
0.040327311 0.76016963 0.47084922
0.049086835 0.75877893 0.46451211
0.088379979 0.76156038 0.47718635
0.09311983 0.76156038 0.47718635
0.094700098 0.76156038 0.47718635
0.10789497 0.76016963 0.47084922
0.11681961 0.76156038 0.47718635
0.11839985 0.76156038 0.47718635
0.13103963 0.76156038 0.47718635
0.14841931 0.76156038 0.47718635
0.16263932 0.76156038 0.47718635
0.16760544 0.76016963 0.47084922
0.1691767 0.76016963 0.47084922
0.19434157 0.7628116 0.48288974
0.20228016 0.7628116 0.48288974
0.20704389 0.7628116 0.48288974
0.23202927 0.76016963 0.47084922
0.28143233 0.75752711 0.45880863
0.2948809 0.75627589 0.45310524
0.3832483 0.69814521 0.18821298
0.4344255 0.6974501 0.18504441
0.447413 0.6974501 0.18504441
0.45921952 0.6974501 0.18504441
0.46027237 0.69814521 0.18821298
0.47929069 0.6974501 0.18504441
0.53478152 0.6974501 0.18504441
0.53596216 0.6974501 0.18504441
0.5522815 0.69675452 0.18187584
0.68050069 0.69675452 0.18187584
0.72167236 0.69675452 0.18187584
0.73814064 0.69675452 0.18187584
0.74284583 0.69675452 0.18187584
0.74990416 0.69675452 0.18187584
0.77337271 0.69592053 0.17807354
0.79101276 0.69522482 0.17490497
0.063530907 0.73577547 0.35171109
0.11003031 0.76072079 0.46451211
0.19116578 0.76478535 0.48288974
0.22574422 0.76212269 0.47084922
0.30880451 0.7581982 0.45310524
0.36310354 0.69961792 0.18821298
0.36784339 0.69961792 0.18821298
0.42170924 0.69821656 0.18187584
0.43111971 0.69821656 0.18187584
0.44269022 0.69891721 0.18504441
0.46394211 0.69891721 0.18504441
0.46758592 0.69821656 0.18187584
0.48755527 0.69891721 0.18504441
0.49700049 0.69891721 0.18504441
0.50052303 0.69821656 0.18187584
0.50287569 0.69821656 0.18187584
0.507581 0.69821656 0.18187584
0.52993113 0.69821656 0.18187584
0.53346014 0.69821656 0.18187584
0.53463644 0.69821656 0.18187584
0.53714287 0.69891721 0.18504441
0.53832346 0.69891721 0.18504441
0.57505774 0.69373202 0.16159697
0.58129561 0.69233072 0.15525983
0.58324021 0.69163007 0.15209126
0.58403552 0.69092941 0.14892271
0.59755021 0.68686497 0.13054499
0.59935308 0.68616432 0.12737642
0.612001 0.68364167 0.11596957
0.61478138 0.68294102 0.11280101
0.63184118 0.68686497 0.13054499
0.65216368 0.6966753 0.17490497
0.65743071 0.69737595 0.17807354
0.66914201 0.69737595 0.17807354
0.67616886 0.69737595 0.17807354
0.70233589 0.6966753 0.17490497
0.70933712 0.6966753 0.17490497
0.72520119 0.69821656 0.18187584
0.73343539 0.69821656 0.18187584
0.7429232 0.69737595 0.17807354
0.76201534 0.69597465 0.1717364
0.76317817 0.69597465 0.1717364
0.76651013 0.6966753 0.17490497
0.76884335 0.6966753 0.17490497
0.051331483 0.73230064 0.32826364
0.010157183 0.76675838 0.48288974
0.035766002 0.76139247 0.45880863
0.047524128 0.76266325 0.46451211
0.077745087 0.76139247 0.45880863
0.087074563 0.76139247 0.45880863
0.096403599 0.76139247 0.45880863
0.12721968 0.76266325 0.46451211
0.13303643 0.76407516 0.47084922
0.20217447 0.76407516 0.47084922
0.21003886 0.76548761 0.47718635
0.22103046 0.76407516 0.47084922
0.23816854 0.76266325 0.46451211
0.2549994 0.76139247 0.45880863
0.26588351 0.76139247 0.45880863
0.27941033 0.76012111 0.45310524
0.36948979 0.70038497 0.18504441
0.39112481 0.69967872 0.18187584
0.42320538 0.69883138 0.17807354
0.42671856 0.69883138 0.17807354
0.42906082 0.69883138 0.17807354
0.43582493 0.69967872 0.18187584
0.44405952 0.69967872 0.18187584
0.46876228 0.69967872 0.18187584
0.4722912 0.69967872 0.18187584
0.49228877 0.69967872 0.18187584
0.54639953 0.69967872 0.18187584
0.55905598 0.69883138 0.17807354
0.56022733 0.69883138 0.17807354
0.57420582 0.69586587 0.16476554
0.57620662 0.69515961 0.16159697
0.59723663 0.68965197 0.13688211
0.64399612 0.69812512 0.17490497
0.65860206 0.69883138 0.17807354
0.67148429 0.69883138 0.17807354
0.68833452 0.69812512 0.17490497
0.69256473 0.69883138 0.17807354
0.69373566 0.69883138 0.17807354
0.71167034 0.69812512 0.17490497
0.73823869 0.69883138 0.17807354
0.75966543 0.69657207 0.16793409
0.77467763 0.69812512 0.17490497
0.051431812 0.73187721 0.31875795
0.038874369 0.76332486 0.45880863
0.048202928 0.76332486 0.45880863
0.054422285 0.76332486 0.45880863
0.074635409 0.76332486 0.45880863
0.094848536 0.76332486 0.45880863
0.10106835 0.76332486 0.45880863
0.12878239 0.7646051 0.46451211
0.13815822 0.7646051 0.46451211
0.16446249 0.76602817 0.47084922
0.16941153 0.7646051 0.46451211
0.1975394 0.7646051 0.46451211
0.22574422 0.76602817 0.47084922
0.24129397 0.7646051 0.46451211
0.25344476 0.76332486 0.45880863
0.25655445 0.76332486 0.45880863
0.27476901 0.76204401 0.45310524
0.28095731 0.76204401 0.45310524
0.29797482 0.76204401 0.45310524
0.30261621 0.76204401 0.45310524
0.30416316 0.76204401 0.45310524
0.36191824 0.70256394 0.18821298
0.41297039 0.69957554 0.17490497
0.41500723 0.70028681 0.17807354
0.43960124 0.70028681 0.17807354
0.45365459 0.70028681 0.17807354
0.45833907 0.70028681 0.17807354
0.46536589 0.70028681 0.17807354
0.46770808 0.70028681 0.17807354
0.47824824 0.70028681 0.17807354
0.48644611 0.70028681 0.17807354
0.50167084 0.70028681 0.17807354
0.52392226 0.70028681 0.17807354
0.52977788 0.70028681 0.17807354
0.55065262 0.69957554 0.17490497
0.55671364 0.70028681 0.17807354
0.55788505 0.70028681 0.17807354
0.57535917 0.69729894 0.16476554
0.58629811 0.69374102 0.14892271
0.61694509 0.68563044 0.11280101
0.65860206 0.70028681 0.17807354
0.67783326 0.69957554 0.17490497
0.68483436 0.69957554 0.17490497
0.68600082 0.69957554 0.17490497
0.69533527 0.69957554 0.17490497
0.70737988 0.69886369 0.1717364
0.71517098 0.69957554 0.17490497
0.71667922 0.69886369 0.1717364
0.7201668 0.69886369 0.1717364
0.74200737 0.69957554 0.17490497
0.75250822 0.69957554 0.17490497
0.78980541 0.69729894 0.16476554
0.019396698 0.7665475 0.46451211
0.051312607 0.76525724 0.45880863
0.05508532 0.76396698 0.45310524
0.060641646 0.76525724 0.45880863
0.082932539 0.76396698 0.45310524
0.10768579 0.76396698 0.45310524
0.1138741 0.76396698 0.45310524
0.13372016 0.76525724 0.45880863
0.14128363 0.7665475 0.46451211
0.15378486 0.7665475 0.46451211
0.17414689 0.76525724 0.45880863
0.17725657 0.76525724 0.45880863
0.18036623 0.76525724 0.45880863
0.19285128 0.7665475 0.46451211
0.21316607 0.7665475 0.46451211
0.23035499 0.7665475 0.46451211
0.25810951 0.76525724 0.45880863
0.26277381 0.76525724 0.45880863
0.2948809 0.76396698 0.45310524
0.36406931 0.70260298 0.18187584
0.37230346 0.70260298 0.18187584
0.37870231 0.70174217 0.17807354
0.41763783 0.70102537 0.17490497
0.42697179 0.70102537 0.17490497
0.43397298 0.70102537 0.17490497
0.44564065 0.70102537 0.17490497
0.44680753 0.70102537 0.17490497
0.46770808 0.70174217 0.17807354
0.50167084 0.70174217 0.17807354
0.51221097 0.70174217 0.17807354
0.53329128 0.70174217 0.17807354
0.53446239 0.70174217 0.17807354
0.53797579 0.70174217 0.17807354
0.5471521 0.70102537 0.17490497
0.5518195 0.70102537 0.17490497
0.56871653 0.69944829 0.16793409
0.57620662 0.69801468 0.16159697
0.60627466 0.68898201 0.12167303
0.6237793 0.68898201 0.12167303
0.62487334 0.68898201 0.12167303
0.63531166 0.69873148 0.16476554
0.6632061 0.70030856 0.1717364
0.67549998 0.70102537 0.17490497
0.68133384 0.70102537 0.17490497
0.68250066 0.70102537 0.17490497
0.68296808 0.70030856 0.1717364
0.6876179 0.70030856 0.1717364
0.71202976 0.70030856 0.1717364
0.72481662 0.70030856 0.1717364
0.72957671 0.69944829 0.16793409
0.73999208 0.69944829 0.16793409
0.74577826 0.69944829 0.16793409
0.752716 0.70030856 0.1717364
0.77131516 0.70030856 0.1717364
0.77596509 0.70030856 0.1717364
0.78049618 0.69944829 0.16793409
0.050854228 0.74277753 0.35171109
0.05507993 0.74277753 0.35171109
0.020215375 0.76718962 0.45880863
0.043449137 0.76458949 0.44740179
0.072103314 0.76588982 0.45310524
0.075197257 0.76588982 0.45310524
0.078291625 0.76588982 0.45310524
0.12750083 0.76718962 0.45880863
0.13993998 0.76718962 0.45880863
0.16170771 0.76718962 0.45880863
0.17103721 0.76718962 0.45880863
0.17730379 0.76588982 0.45310524
0.19280495 0.76718962 0.45880863
0.20524409 0.76718962 0.45880863
0.2099084 0.76718962 0.45880863
0.21629104 0.76848996 0.46451211
0.2207925 0.76718962 0.45880863
0.2643289 0.76718962 0.45880863
0.27012765 0.76588982 0.45310524
0.30204764 0.76458949 0.44740179
0.30512622 0.76458949 0.44740179
0.36816233 0.70319819 0.17807354
0.37401778 0.70319819 0.17807354
0.43747309 0.70247585 0.17490497
0.45047477 0.70175338 0.1717364
0.48297831 0.70247585 0.17490497
0.48647872 0.70247585 0.17490497
0.49231267 0.70247585 0.17490497
0.50048023 0.70247585 0.17490497
0.50281388 0.70247585 0.17490497
0.55160946 0.70175338 0.1717364
0.55277181 0.70175338 0.1717364
0.57933426 0.6987204 0.1584284
0.59121388 0.69510889 0.14258558
0.59906113 0.69308662 0.13371354
0.60671455 0.69106442 0.12484159
0.60736912 0.69034201 0.12167303
0.60919493 0.68976408 0.11913814
0.63646454 0.70016468 0.16476554
0.66033125 0.70247585 0.17490497
0.67483062 0.70175338 0.1717364
0.67599297 0.70175338 0.1717364
0.68675786 0.70088702 0.16793409
0.71221781 0.70088702 0.16793409
0.72031832 0.70088702 0.16793409
0.72754669 0.70016468 0.16476554
0.74945253 0.70016468 0.16476554
0.7540642 0.70016468 0.16476554
0.7565378 0.69944221 0.16159697
0.79099613 0.69944221 0.16159697
0.052141178 0.74016243 0.33269963
0.055843752 0.74336392 0.34664136
0.060048755 0.74336392 0.34664136
0.021771811 0.76912194 0.45880863
0.067461975 0.76781219 0.45310524
0.072103314 0.76781219 0.45310524
0.1138741 0.76781219 0.45310524
0.16481739 0.76912194 0.45880863
0.16956851 0.76781219 0.45310524
0.20050964 0.76781219 0.45310524
0.20360404 0.76781219 0.45310524
0.23945101 0.76912194 0.45880863
0.24411575 0.76912194 0.45880863
0.25188974 0.76912194 0.45880863
0.27167508 0.76781219 0.45310524
0.28095731 0.76781219 0.45310524
0.2958903 0.76650238 0.44740179
0.37913325 0.70392621 0.17490497
0.38263384 0.70392621 0.17490497
0.38730082 0.70392621 0.17490497
0.40746358 0.70319819 0.1717364
0.40978831 0.70319819 0.1717364
0.42490032 0.70319819 0.1717364
0.43536249 0.70319819 0.1717364
0.45847553 0.70392621 0.17490497
0.46430954 0.70392621 0.17490497
0.47247708 0.70392621 0.17490497
0.52011102 0.70232511 0.16793409
0.53998464 0.70319819 0.1717364
0.57420582 0.70159775 0.16476554
0.59531683 0.69577658 0.13941701
0.59723663 0.69519418 0.13688211
0.59906113 0.69446671 0.13371354
0.60376054 0.69301128 0.12737642
0.62069082 0.69039172 0.11596957
0.6237793 0.69170147 0.12167303
0.62758356 0.69242948 0.12484159
0.64453495 0.70159775 0.16476554
0.64799416 0.70159775 0.16476554
0.65375876 0.70159775 0.16476554
0.65782607 0.70232511 0.16793409
0.66939849 0.70232511 0.16793409
0.68097121 0.70232511 0.16793409
0.68444306 0.70232511 0.16793409
0.69987625 0.70159775 0.16476554
0.72062916 0.70159775 0.16476554
0.72178209 0.70159775 0.16476554
0.74599379 0.70159775 0.16476554
0.75538933 0.70086974 0.16159697
0.76444089 0.70159775 0.16476554
0.78410429 0.70086974 0.16159697
0.051331483 0.74085408 0.32826364
0.053523522 0.7418806 0.33269963
0.067461975 0.7697351 0.45310524
0.097808413 0.76709652 0.4416984
0.12750083 0.77105445 0.45880863
0.14017434 0.7697351 0.45310524
0.16492717 0.7697351 0.45310524
0.17575683 0.7697351 0.45310524
0.18194513 0.7697351 0.45310524
0.21907461 0.7697351 0.45310524
0.22680989 0.7697351 0.45310524
0.25001574 0.7697351 0.45310524
0.28095731 0.7697351 0.45310524
0.30149478 0.76709652 0.4416984
0.30608889 0.76709652 0.4416984
0.36979881 0.70537603 0.17490497
0.37723947 0.70464301 0.1717364
0.3853769 0.70464301 0.1717364
0.41676337 0.70464301 0.1717364
0.42838788 0.70464301 0.1717364
0.43910238 0.70376325 0.16793409
0.44951776 0.70376325 0.16793409
0.45861199 0.70464301 0.1717364
0.4737241 0.70464301 0.1717364
0.49116105 0.70464301 0.1717364
0.49232352 0.70464301 0.1717364
0.49464849 0.70464301 0.1717364
0.50043744 0.70376325 0.16793409
0.50627315 0.70464301 0.1717364
0.52347672 0.70303029 0.16476554
0.52705461 0.70376325 0.16793409
0.5419237 0.70303029 0.16476554
0.5603708 0.70303029 0.16476554
0.57218832 0.70376325 0.16793409
0.58047819 0.70156425 0.1584284
0.58357573 0.70083123 0.15525983
0.59233665 0.69789922 0.14258558
0.60197473 0.69511384 0.13054499
0.61478138 0.69100922 0.11280101
0.66413498 0.70303029 0.16476554
0.71289074 0.70229727 0.16159697
0.71486461 0.70303029 0.16476554
0.72552562 0.70229727 0.16159697
0.74620026 0.70229727 0.16159697
0.74868691 0.70156425 0.1584284
0.74983126 0.70156425 0.1584284
0.75538933 0.70229727 0.16159697
0.76098168 0.70303029 0.16476554
0.77958214 0.70156425 0.1584284
0.78295588 0.70229727 0.16159697
0.017107062 0.77298683 0.45880863
0.05576412 0.77032864 0.44740179
0.065647334 0.76899987 0.4416984
0.074235506 0.77032864 0.44740179
0.094745524 0.76899987 0.4416984
0.098307736 0.76767045 0.43599492
0.12195306 0.77032864 0.44740179
0.15119879 0.77032864 0.44740179
0.1804454 0.77032864 0.44740179
0.19891633 0.77032864 0.44740179
0.2159802 0.771658 0.45310524
0.23454517 0.771658 0.45310524
0.24971254 0.77032864 0.44740179
0.27126211 0.77032864 0.44740179
0.27631596 0.771658 0.45310524
0.30455765 0.76899987 0.4416984
0.3091518 0.76899987 0.4416984
0.3128224 0.77032864 0.44740179
0.3877016 0.70608789 0.1717364
0.39396864 0.70520204 0.16793409
0.42984399 0.70520204 0.16793409
0.43563059 0.70520204 0.16793409
0.47150573 0.70520204 0.16793409
0.50041801 0.70446342 0.16476554
0.50387686 0.70446342 0.16476554
0.50733566 0.70446342 0.16476554
0.51771212 0.70446342 0.16476554
0.53385323 0.70446342 0.16476554
0.54538244 0.70446342 0.16476554
0.58357573 0.70224822 0.15525983
0.58969206 0.70077151 0.14892271
0.59045726 0.70003301 0.14575414
0.59612155 0.69796562 0.13688211
0.60128242 0.697227 0.13371354
0.63823152 0.70372486 0.16159697
0.66644084 0.70446342 0.16476554
0.67912334 0.70446342 0.16476554
0.68417537 0.70372486 0.16159697
0.71174234 0.70372486 0.16159697
0.74772739 0.70224822 0.15525983
0.7750861 0.70224822 0.15525983
0.78762555 0.70224822 0.15525983
0.050758403 0.74531698 0.33269963
0.038883325 0.76956439 0.43599492
0.041933186 0.76956439 0.43599492
0.065647334 0.77090317 0.4416984
0.074836046 0.77090317 0.4416984
0.077899367 0.77090317 0.4416984
0.082493491 0.77090317 0.4416984
0.093213864 0.77090317 0.4416984
0.10440248 0.76956439 0.43599492
0.1544731 0.77090317 0.4416984
0.15753599 0.77090317 0.4416984
0.16351335 0.77224207 0.44740179
0.19275953 0.77224207 0.44740179
0.201995 0.77224207 0.44740179
0.20507362 0.77224207 0.44740179
0.21123046 0.77224207 0.44740179
0.22046636 0.77224207 0.44740179
0.22492059 0.77090317 0.4416984
0.24201596 0.77224207 0.44740179
0.27086493 0.77090317 0.4416984
0.38051242 0.7058965 0.16476554
0.39859784 0.70664012 0.16793409
0.40091223 0.70664012 0.16793409
0.42317119 0.7058965 0.16476554
0.42893577 0.7058965 0.16476554
0.4323945 0.7058965 0.16476554
0.43815953 0.7058965 0.16476554
0.44296822 0.70515233 0.16159697
0.47283199 0.70515233 0.16159697
0.47627783 0.70515233 0.16159697
0.47735927 0.7058965 0.16476554
0.49465552 0.70515233 0.16159697
0.50272387 0.7058965 0.16476554
0.51762766 0.70515233 0.16159697
0.51992482 0.70515233 0.16159697
0.52796513 0.70515233 0.16159697
0.53961784 0.7058965 0.16476554
0.55782884 0.70515233 0.16159697
0.58437556 0.70292097 0.15209126
0.5866468 0.70292097 0.15209126
0.59612155 0.69935131 0.13688211
0.59723663 0.69935131 0.13688211
0.60706592 0.69711983 0.12737642
0.62520444 0.69786346 0.13054499
0.64742023 0.70515233 0.16159697
0.64971745 0.70515233 0.16159697
0.68187851 0.70515233 0.16159697
0.68762153 0.70515233 0.16159697
0.69221562 0.70515233 0.16159697
0.72465694 0.70440871 0.1584284
0.73495537 0.70440871 0.1584284
0.74202764 0.70366514 0.15525983
0.74316794 0.70366514 0.15525983
0.75342721 0.70366514 0.15525983
0.76228076 0.70515233 0.16159697
0.76457804 0.70515233 0.16159697
0.78310794 0.70292097 0.15209126
0.0086727105 0.77550328 0.45310524
0.040408283 0.77145773 0.43599492
0.041933186 0.77145773 0.43599492
0.051073737 0.77145773 0.43599492
0.060925934 0.77010936 0.43029156
0.076976337 0.77145773 0.43599492
0.086118229 0.77145773 0.43599492
0.13118853 0.7741549 0.44740179
0.15468408 0.77145773 0.43599492
0.18663372 0.77280658 0.4416984
0.19887047 0.77145773 0.43599492
0.20348033 0.77280658 0.4416984
0.20654322 0.77280658 0.4416984
0.22645228 0.77280658 0.4416984
0.26320791 0.77280658 0.4416984
0.26895988 0.77145773 0.43599492
0.29230562 0.77280658 0.4416984
0.36910203 0.70897752 0.1717364
0.40785581 0.70807827 0.16793409
0.4154017 0.70657986 0.16159697
0.44316524 0.70583063 0.1584284
0.44659835 0.70583063 0.1584284
0.44774225 0.70583063 0.1584284
0.48891249 0.70657986 0.16159697
0.51983178 0.70583063 0.1584284
0.52555317 0.70583063 0.1584284
0.5983513 0.7007364 0.13688211
0.6001718 0.69998723 0.13371354
0.61246657 0.69654143 0.11913814
0.62010062 0.69654143 0.11913814
0.62209159 0.69788975 0.12484159
0.63162845 0.70208532 0.14258558
0.63888508 0.70433283 0.15209126
0.66973174 0.70583063 0.1584284
0.68689597 0.70583063 0.1584284
0.6945129 0.70657986 0.16159697
0.72720838 0.70508152 0.15525983
0.73290819 0.70508152 0.15525983
0.75898528 0.70583063 0.1584284
0.76585108 0.70583063 0.1584284
0.76834494 0.70433283 0.15209126
0.78540385 0.70358366 0.14892271
0.049376085 0.74875325 0.33269963
0.05486222 0.77199328 0.43029156
0.066310398 0.77335161 0.43599492
0.067834415 0.77335161 0.43599492
0.078499898 0.77335161 0.43599492
0.1379234 0.77335161 0.43599492
0.17131925 0.77470994 0.4416984
0.18058665 0.77335161 0.43599492
0.19125213 0.77335161 0.43599492
0.19429974 0.77335161 0.43599492
0.20191808 0.77335161 0.43599492
0.21105997 0.77335161 0.43599492
0.22477303 0.77335161 0.43599492
0.25372323 0.77335161 0.43599492
0.26895988 0.77335161 0.43599492
0.27657822 0.77335161 0.43599492
0.28311694 0.77470994 0.4416984
0.29690021 0.77470994 0.4416984
0.37198049 0.70951694 0.16793409
0.39128089 0.7080074 0.16159697
0.40046957 0.7080074 0.16159697
0.40161848 0.7080074 0.16159697
0.41655013 0.7080074 0.16159697
0.42600107 0.70725322 0.1584284
0.45560288 0.7080074 0.16159697
0.47177222 0.70725322 0.1584284
0.52440888 0.70725322 0.1584284
0.5383026 0.7080074 0.16159697
0.56077653 0.70649844 0.15525983
0.58129561 0.70649844 0.15525983
0.60461384 0.70136732 0.13371354
0.60816801 0.69985837 0.12737642
0.62209159 0.69925481 0.12484159
0.62845176 0.70212209 0.13688211
0.63888508 0.70574421 0.15209126
0.64342749 0.70574421 0.15209126
0.64683449 0.70574421 0.15209126
0.65311235 0.70649844 0.15525983
0.6971944 0.70725322 0.1584284
0.71321416 0.70725322 0.1584284
0.74336135 0.70574421 0.15209126
0.74676836 0.70574421 0.15209126
0.74790376 0.70574421 0.15209126
0.75358194 0.70574421 0.15209126
0.76039553 0.70574421 0.15209126
0.77069706 0.70498943 0.14892271
0.029742798 0.77524549 0.43599492
0.11659198 0.77524549 0.43599492
0.15163647 0.77524549 0.43599492
0.15620764 0.77524549 0.43599492
0.15773124 0.77524549 0.43599492
0.16534956 0.77524549 0.43599492
0.16687359 0.77524549 0.43599492
0.18820497 0.77524549 0.43599492
0.2339154 0.77524549 0.43599492
0.25067562 0.77524549 0.43599492
0.25677037 0.77524549 0.43599492
0.25829396 0.77524549 0.43599492
0.28771153 0.77661335 0.4416984
0.30302599 0.77661335 0.4416984
0.38898364 0.70943499 0.16159697
0.40998125 0.70867515 0.1584284
0.41112563 0.70867515 0.1584284
0.41258398 0.70791537 0.15525983
0.44202089 0.70867515 0.1584284
0.44450259 0.70791537 0.15525983
0.4479222 0.70791537 0.15525983
0.45020193 0.70791537 0.15525983
0.4707211 0.70791537 0.15525983
0.483215 0.70867515 0.1584284
0.49010015 0.70791537 0.15525983
0.49124008 0.70791537 0.15525983
0.49921972 0.70791537 0.15525983
0.5038119 0.70867515 0.1584284
0.52087867 0.70791537 0.15525983
0.53585166 0.70867515 0.1584284
0.53911775 0.70791537 0.15525983
0.54367763 0.70791537 0.15525983
0.54595733 0.70791537 0.15525983
0.60572404 0.702748 0.13371354
0.60706592 0.70122784 0.12737642
0.62460256 0.702748 0.13371354
0.63494325 0.70639527 0.14892271
0.63607454 0.70639527 0.14892271
0.64229167 0.70715559 0.15209126
0.65364808 0.70715559 0.15209126
0.66159749 0.70715559 0.15209126
0.67295349 0.70715559 0.15209126
0.67408884 0.70715559 0.15209126
0.70291573 0.70867515 0.1584284
0.70782965 0.70791537 0.15525983
0.71435857 0.70867515 0.1584284
0.71893555 0.70867515 0.1584284
0.72632724 0.70715559 0.15209126
0.74449718 0.70715559 0.15209126
0.7458089 0.70639527 0.14892271
0.75812435 0.70715559 0.15209126
0.76153135 0.70715559 0.15209126
0.76493794 0.70715559 0.15209126
0.76504093 0.70639527 0.14892271
0.048578534 0.75111854 0.32826364
0.04995501 0.75111854 0.32826364
0.012046462 0.77851671 0.4416984
0.015109784 0.77851671 0.4416984
0.06089218 0.77300626 0.41888469
0.066893369 0.77300626 0.41888469
0.10640243 0.77576154 0.43029156
0.11141804 0.7743842 0.42458817
0.12004533 0.77576154 0.43029156
0.12610859 0.77576154 0.43029156
0.14884709 0.77576154 0.43029156
0.18058665 0.77713943 0.43599492
0.19582331 0.77713943 0.43599492
0.2094824 0.77576154 0.43029156
0.22172591 0.77713943 0.43599492
0.2339154 0.77713943 0.43599492
0.24586333 0.77576154 0.43029156
0.26860183 0.77576154 0.43029156
0.27314961 0.77576154 0.43029156
0.28724414 0.77713943 0.43599492
0.38251868 0.71009767 0.1584284
0.39167315 0.71009767 0.1584284
0.39281708 0.71009767 0.1584284
0.42084736 0.70856696 0.15209126
0.42198274 0.70856696 0.15209126
0.42968291 0.70933235 0.15525983
0.43766293 0.70933235 0.15525983
0.46046159 0.70933235 0.15525983
0.47414091 0.70933235 0.15525983
0.52543837 0.70933235 0.15525983
0.52771831 0.70933235 0.15525983
0.58969206 0.70780158 0.14892271
0.60058117 0.70489353 0.13688211
0.6428625 0.70780158 0.14892271
0.65024102 0.70856696 0.15209126
0.66046166 0.70856696 0.15209126
0.67114425 0.70780158 0.14892271
0.69984972 0.70933235 0.15525983
0.71238917 0.70933235 0.15525983
0.71270001 0.70856696 0.15209126
0.72544599 0.70780158 0.14892271
0.72859842 0.70856696 0.15209126
0.73654777 0.70856696 0.15209126
0.75048441 0.7070362 0.14575414
0.7626667 0.70856696 0.15209126
0.77978504 0.7070362 0.14575414
0.010512548 0.78042012 0.4416984
0.054891013 0.77487123 0.41888469
0.07760068 0.77764535 0.43029156
0.10488651 0.77764535 0.43029156
0.11490242 0.77487123 0.41888469
0.15187892 0.77764535 0.43029156
0.17461696 0.77764535 0.43029156
0.1821966 0.77764535 0.43029156
0.19432358 0.77764535 0.43029156
0.20341869 0.77764535 0.43029156
0.29133984 0.77764535 0.43029156
0.29943365 0.77903271 0.43599492
0.30820489 0.78180754 0.44740179
0.32381219 0.77903271 0.43599492
0.37679729 0.71151966 0.1584284
0.3802304 0.71151966 0.1584284
0.3969996 0.70997828 0.15209126
0.44355977 0.70997828 0.15209126
0.44828162 0.70920736 0.14892271
0.44941294 0.70920736 0.14892271
0.4583225 0.70997828 0.15209126
0.45945814 0.70997828 0.15209126
0.46172932 0.70997828 0.15209126
0.4638814 0.71074867 0.15525983
0.47194991 0.70997828 0.15209126
0.48557726 0.70997828 0.15209126
0.49011973 0.70997828 0.15209126
0.50034022 0.70997828 0.15209126
0.52418804 0.70997828 0.15209126
0.5366798 0.70997828 0.15209126
0.57415497 0.70997828 0.15209126
0.59609228 0.70843697 0.14575414
0.60504031 0.70627868 0.13688211
0.61174506 0.70257956 0.12167303
0.64399338 0.70920736 0.14892271
0.64964998 0.70920736 0.14892271
0.6688816 0.70920736 0.14892271
0.67680085 0.70920736 0.14892271
0.68061364 0.70843697 0.14575414
0.69263852 0.70920736 0.14892271
0.75062609 0.70766598 0.14258558
0.75837308 0.70843697 0.14575414
0.76626176 0.70843697 0.14575414
0.7730785 0.70766598 0.14258558
0.078240365 0.77813298 0.42458817
0.082764752 0.77813298 0.42458817
0.137407 0.77673554 0.41888469
0.14158008 0.77813298 0.42458817
0.17006917 0.77952981 0.43029156
0.1912917 0.77952981 0.43029156
0.25921071 0.77813298 0.42458817
0.28484833 0.77813298 0.42458817
0.30248082 0.78092664 0.43599492
0.30400437 0.78092664 0.43599492
0.3227281 0.78511721 0.45310524
0.37175468 0.71371812 0.16159697
0.38223663 0.71138966 0.15209126
0.39359257 0.71138966 0.15209126
0.40076783 0.71061367 0.14892271
0.41660592 0.71061367 0.14892271
0.41886854 0.71061367 0.14892271
0.45167562 0.71061367 0.14892271
0.46854305 0.71138966 0.15209126
0.47194991 0.71138966 0.15209126
0.47989917 0.71138966 0.15209126
0.48103482 0.71138966 0.15209126
0.48330599 0.71138966 0.15209126
0.51276487 0.71061367 0.14892271
0.51615864 0.71061367 0.14892271
0.52759486 0.71138966 0.15209126
0.56140995 0.71061367 0.14892271
0.57046008 0.71061367 0.14892271
0.58482271 0.70983773 0.14575414
0.60926962 0.70533639 0.12737642
0.61110806 0.70471555 0.12484159
0.61573821 0.70331812 0.11913814
0.62460256 0.70688844 0.13371354
0.6383642 0.70906121 0.14258558
0.64512467 0.71061367 0.14892271
0.64625603 0.71061367 0.14892271
0.66821718 0.70983773 0.14575414
0.68775916 0.70906121 0.14258558
0.7042796 0.70983773 0.14575414
0.72681838 0.70983773 0.14575414
0.73675871 0.71061367 0.14892271
0.73902142 0.71061367 0.14892271
0.75399399 0.70906121 0.14258558
0.76977003 0.70828521 0.13941701
0.7843045 0.70906121 0.14258558
0.17475775 0.78000677 0.42458817
0.19737929 0.78000677 0.42458817
0.2064276 0.78000677 0.42458817
0.20944372 0.78000677 0.42458817
0.23055696 0.78000677 0.42458817
0.23792654 0.77860039 0.41888469
0.26493165 0.77860039 0.41888469
0.28635618 0.78000677 0.42458817
0.29540497 0.78000677 0.42458817
0.30248082 0.78282052 0.43599492
0.30820489 0.7856338 0.44740179
0.38337201 0.71280098 0.15209126
0.38677901 0.71280098 0.15209126
0.40189913 0.7120195 0.14892271
0.41094932 0.7120195 0.14892271
0.41208062 0.7120195 0.14892271
0.4335753 0.7120195 0.14892271
0.43583751 0.7120195 0.14892271
0.43696883 0.7120195 0.14892271
0.44508061 0.71123797 0.14575414
0.48222023 0.7120195 0.14892271
0.48674533 0.7120195 0.14892271
0.4969269 0.7120195 0.14892271
0.51163357 0.7120195 0.14892271
0.53086543 0.7120195 0.14892271
0.53765309 0.7120195 0.14892271
0.53878433 0.7120195 0.14892271
0.58335578 0.71045637 0.14258558
0.58672369 0.71045637 0.14258558
0.58784604 0.71045637 0.14258558
0.59271139 0.71123797 0.14575414
0.60090816 0.70967537 0.13941701
0.60314512 0.70967537 0.13941701
0.61393303 0.70529902 0.12167303
0.62845176 0.70905 0.13688211
0.049457941 0.75670201 0.32319394
0.01688211 0.77904892 0.4131813
0.067626595 0.77904892 0.4131813
0.072104223 0.77904892 0.4131813
0.079566456 0.77904892 0.4131813
0.087897316 0.78046477 0.41888469
0.10493914 0.77904892 0.4131813
0.10643166 0.77904892 0.4131813
0.1216067 0.77778989 0.4081116
0.15269898 0.77904892 0.4131813
0.20342006 0.78046477 0.41888469
0.21092144 0.78046477 0.41888469
0.23642635 0.78046477 0.41888469
0.24374104 0.77904892 0.4131813
0.24523358 0.77904892 0.4131813
0.24672613 0.77904892 0.4131813
0.27843422 0.78046477 0.41888469
0.28403866 0.77904892 0.4131813
0.37927359 0.71342582 0.14892271
0.39662173 0.71263868 0.14575414
0.39963651 0.71342582 0.14892271
0.44282699 0.71263868 0.14575414
0.44620743 0.71263868 0.14575414
0.46525103 0.71342582 0.14892271
0.46638227 0.71342582 0.14892271
0.48339707 0.71263868 0.14575414
0.49466655 0.71263868 0.14575414
0.50371462 0.71342582 0.14892271
0.51607859 0.71263868 0.14575414
0.52960205 0.71263868 0.14575414
0.53508312 0.71185207 0.14258558
0.54181892 0.71185207 0.14258558
0.55439478 0.71263868 0.14575414
0.60504031 0.71043569 0.13688211
0.63110209 0.71106499 0.13941701
0.66129607 0.71106499 0.13941701
0.66306168 0.71185207 0.14258558
0.66353261 0.71106499 0.13941701
0.67471546 0.71106499 0.13941701
0.67990106 0.71185207 0.14258558
0.68813479 0.71106499 0.13941701
0.69037133 0.71106499 0.13941701
0.69596273 0.71106499 0.13941701
0.70572132 0.71185207 0.14258558
0.71497387 0.71106499 0.13941701
0.71609217 0.71106499 0.13941701
0.7304188 0.71185207 0.14258558
0.76865172 0.71106499 0.13941701
0.77337855 0.71043569 0.13688211
0.77983451 0.71106499 0.13941701
0.06961216 0.77963632 0.4081116
0.10526571 0.77963632 0.4081116
0.12012134 0.77963632 0.4081116
0.12457782 0.77963632 0.4081116
0.1260636 0.77963632 0.4081116
0.1780712 0.78090376 0.4131813
0.19291785 0.78232962 0.41888469
0.23329373 0.78090376 0.4131813
0.26314357 0.78090376 0.4131813
0.27806848 0.78090376 0.4131813
0.28403866 0.78090376 0.4131813
0.2919372 0.78232962 0.41888469
0.29896355 0.78090376 0.4131813
0.31834093 0.7880336 0.4416984
0.3733646 0.71720862 0.1584284
0.38422534 0.71403944 0.14575414
0.38647941 0.71403944 0.14575414
0.39211401 0.71403944 0.14575414
0.40112951 0.71403944 0.14575414
0.40789136 0.71403944 0.14575414
0.41239908 0.71403944 0.14575414
0.42366871 0.71403944 0.14575414
0.42731142 0.7132473 0.14258558
0.46311197 0.71403944 0.14575414
0.49354613 0.7132473 0.14258558
0.49917436 0.71403944 0.14575414
0.50480908 0.71403944 0.14575414
0.50593609 0.71403944 0.14575414
0.51720554 0.71403944 0.14575414
0.56539363 0.7132473 0.14258558
0.59345943 0.7132473 0.14258558
0.59458178 0.7132473 0.14258558
0.60615498 0.7118209 0.13688211
0.60727012 0.7118209 0.13688211
0.62349188 0.71102875 0.13371354
0.63291091 0.7118209 0.13688211
0.64340317 0.71245515 0.13941701
0.65408081 0.7132473 0.14258558
0.68589824 0.71245515 0.13941701
0.69199657 0.7118209 0.13688211
0.70267284 0.71245515 0.13941701
0.70871902 0.7118209 0.13688211
0.71540797 0.7118209 0.13688211
0.72839326 0.71245515 0.13941701
0.74069428 0.71245515 0.13941701
0.76891935 0.7118209 0.13688211
0.048814241 0.78148228 0.4081116
0.097476453 0.78275865 0.4131813
0.10229457 0.78148228 0.4081116
0.10526571 0.78148228 0.4081116
0.10675104 0.78148228 0.4081116
0.10823683 0.78148228 0.4081116
0.10972218 0.78148228 0.4081116
0.13349122 0.78148228 0.4081116
0.14389041 0.78148228 0.4081116
0.16314629 0.78275865 0.4131813
0.20034185 0.78148228 0.4081116
0.20628411 0.78148228 0.4081116
0.20941357 0.78275865 0.4131813
0.26422137 0.78148228 0.4081116
0.27508342 0.78275865 0.4131813
0.28851581 0.78275865 0.4131813
0.30642581 0.78275865 0.4131813
0.30693996 0.78419453 0.41888469
0.40901819 0.71544021 0.14575414
0.41014543 0.71544021 0.14575414
0.43043056 0.71544021 0.14575414
0.43966064 0.71464247 0.14258558
0.46323541 0.71464247 0.14258558
0.4688485 0.71464247 0.14258558
0.47776231 0.71544021 0.14575414
0.47895211 0.71464247 0.14258558
0.48684299 0.71384472 0.13941701
0.50593609 0.71544021 0.14575414
0.51038539 0.71464247 0.14258558
0.51368189 0.71384472 0.13941701
0.52150989 0.71384472 0.13941701
0.52374643 0.71384472 0.13941701
0.53157455 0.71384472 0.13941701
0.54275721 0.71384472 0.13941701
0.55394047 0.71384472 0.13941701
0.57742429 0.71384472 0.13941701
0.57854259 0.71384472 0.13941701
0.58301574 0.71384472 0.13941701
0.59054768 0.71320659 0.13688211
0.61769807 0.71017581 0.12484159
0.66970032 0.71320659 0.13688211
0.69645578 0.71320659 0.13688211
0.71094841 0.71320659 0.13688211
0.72565734 0.71240884 0.13371354
0.7299006 0.71320659 0.13688211
0.73658961 0.71320659 0.13688211
0.73993409 0.71320659 0.13688211
0.75331205 0.71320659 0.13688211
0.7601558 0.71161169 0.13054499
0.76347464 0.71161169 0.13054499
0.77896094 0.71240884 0.13371354
0.070367858 0.78188336 0.40240812
0.082190305 0.78188336 0.40240812
0.10823683 0.78332871 0.4081116
0.13095641 0.78188336 0.40240812
