ply
format ascii 1.0
comment Aron generated
element vertex 920
property float x
property float y
property float z
property float nx
property float ny
property float nz
end_header
0.64309 0.844832 0.066 -0.824377 0.566037 -0.00222022
0.99509 0.856538 -0.066 -0.995331 0.0747829 -0.0610151
0.99509 0.84904 0.066 0.948809 0.310434 0.0582472
0.64309 0.848279 -0.077 -0.834084 0.53014 0.152497
0.64309 0.848619 0.077 -0.833041 0.552014 -0.0363853
0.99509 0.852009 -0.077 -0.949633 -0.251471 0.186973
0.99509 0.856181 0.077 -0.982789 -0.0375429 0.180877
0.64309 0.853858 -0.088 -0.496684 0.639832 0.586447
0.64309 0.850024 0.088 0.826744 -0.561665 -0.0320483
0.99509 0.85482 -0.088 0.904734 0.0654649 -0.420917
0.99509 0.848248 0.088 0.905848 0.358081 -0.226313
0.64309 0.853302 -0.099 0.110695 -0.114162 -0.987276
0.64309 0.85403 0.099 0.592389 -0.804167 -0.0488943
0.99509 0.856049 -0.099 0.560487 -0.103598 -0.821658
0.99509 0.851504 0.099 -0.305157 -0.0621195 0.950274
0.5 0.489 -0.0991134 -0.111928 0.175604 -0.978077
0.5 0.478 -0.109683 -0.128496 -0.0134961 -0.991618
0.5 0.467 -0.101326 0.128957 0.107452 0.985811
0.5 0.456 -0.0968735 -0.0755176 0.192963 0.978296
0.5 0.445 -0.103343 -0.0410801 0.0811845 0.995852
0.5 0.434 -0.105874 -0.0523731 -0.107883 0.992783
0.5 0.423 -0.0974157 0.0129807 -0.0312809 0.999426
0.5 0.412 -0.0999363 -0.00921692 0.0657138 0.997796
0.5 0.401 -0.100789 -0.0263 0.0405114 -0.998833
0.5 0.39 -0.101611 -0.013729 0.11388 0.9934
0.5 0.379 -0.093406 -0.020979 0.0424058 0.99888
0.5 0.368 -0.100372 -0.0232697 -0.00201685 -0.999727
0.5 0.357 -0.0995652 0.0427583 0.135163 -0.9899
0.5 0.346 -0.0891145 -0.0867173 -0.208449 0.974181
0.5 0.335 -0.102149 0.185812 -0.0305983 -0.982109
0.5 0.324 -0.10639 0.131872 -0.0321131 -0.990746
0.5 0.313 -0.0923645 0.012671 0.0991547 0.994991
0.5 0.302 -0.0965634 0.0581228 0.0460537 0.997247
0.5 0.291 -0.100741 0.0442741 0.154908 -0.986936
0.5 0.28 -0.10094 0.0269604 0.0786466 -0.996538
0.5 0.269 -0.109192 0.0786263 -0.00812722 -0.996871
0.5 0.258 -0.0951456 0.0281831 0.0359333 0.998957
0.5 0.247 -0.0974062 0.137685 0.0650057 0.988341
0.5 0.236 -0.108786 -0.180567 0.0150379 -0.983448
0.5 0.225 -0.109334 0.173754 -0.00268738 0.984785
0.5 0.214 -0.100947 -0.159973 -0.0373855 -0.986413
0.5 0.203 -0.104559 0.158484 -0.0248101 0.98705
0.5 0.192 -0.098643 0.0604487 -0.102774 0.992866
0.5 0.181 -0.1086 0.113453 -0.0895929 0.989496
0.5 0.17 -0.103051 -0.0762633 0.00903865 -0.997047
0.5 0.159 -0.104928 0.100151 -0.0422925 0.994073
0.5 0.148 -0.100665 -0.0358974 -0.0509285 -0.998057
0.5 0.137 -0.105612 0.004114 0.0624342 0.998041
0.5 0.126 -0.101725 -0.0125484 0.0383845 0.999184
0.5 0.115 -0.0959395 -0.0303195 -0.092657 -0.995236
0.5 0.104 -0.101284 0.00931278 -0.0674058 0.997682
0.5 0.093 -0.0986274 0.103517 -0.0874439 0.990776
0.5 0.082 -0.0981352 -0.0683158 0.10554 -0.992066
0.5 0.071 -0.103989 0.124267 0.0200621 0.992046
0.5 0.06 -0.0974535 -0.146654 -0.131241 -0.980443
0.5 0.049 -0.0932347 0.122653 0.174162 0.977049
0.5 0.038 -0.10235 0.144392 0.0211728 0.989294
0.5 0.027 -0.0945711 -0.124494 -0.0436921 -0.991258
0.5 0.016 -0.103422 0.0569299 0.0793757 0.995218
0.5 0.005 -0.0946291 -0.0137291 -0.802817 -0.596067
0.511 0.5 -0.0909063 -0.0288635 0.109554 -0.993562
0.489 0.5 -0.0978354 0.00560738 0.0794012 0.996827
0.511 0.489 -0.106413 -0.0834405 0.199279 -0.976384
0.511 0.511 -0.0974093 0.0304003 0.137328 -0.990059
0.489 0.489 -0.0970394 0.0609084 -0.202497 0.977387
0.489 0.511 -0.106868 -0.111096 0.088831 0.989832
0.511 0.478 -0.100809 -0.057315 0.0918513 -0.994122
0.511 0.522 -0.101841 -0.0306129 -0.0410866 0.998686
0.489 0.478 -0.100926 0.0886691 -0.0673334 0.993783
0.489 0.522 -0.0990394 -0.17572 -0.185353 0.966833
0.511 0.467 -0.10052 -0.0267622 0.213675 0.976538
0.511 0.533 -0.0925214 -0.0160692 -0.190435 0.981568
0.489 0.467 -0.111055 0.00288002 0.0233624 0.999723
0.489 0.533 -0.0961745 -0.098884 -0.411271 0.906134
0.511 0.456 -0.100848 -0.0525241 0.219231 0.974258
0.511 0.544 -0.095253 -0.0456869 -0.213519 -0.97587
0.489 0.456 -0.0964301 -0.0227449 0.0396354 0.998955
0.489 0.544 -0.100118 -0.0988085 -0.377867 0.920572
0.511 0.445 -0.0968364 0.0198579 -0.015722 0.999679
0.511 0.555 -0.104904 0.0542411 -0.287225 -0.956326
0.489 0.445 -0.0946147 0.118961 -0.120715 -0.985533
0.489 0.555 -0.100179 0.0872503 0.0923494 0.991897
0.511 0.434 -0.0928303 0.0629906 -0.0730602 0.995336
0.511 0.566 -0.099719 0.0161008 -0.184582 -0.982685
0.489 0.434 -0.1029 0.07905 0.0787746 -0.993753
0.489 0.566 -0.103041 0.119013 0.0650076 0.990762
0.511 0.423 -0.100384 -0.0254187 0.00686294 0.999653
0.511 0.577 -0.102251 -0.0658388 -0.108688 0.991893
0.489 0.423 -0.0919608 0.0102206 -0.0262311 -0.999604
0.489 0.577 -0.09867 -0.134761 -0.092302 -0.98657
0.511 0.412 -0.104614 0.00968614 -0.012927 -0.99987
0.511 0.588 -0.101109 0.0280665 -0.066803 0.997371
0.489 0.412 -0.101763 0.00973456 -0.0498475 -0.998709
0.489 0.588 -0.0978343 -0.159118 -0.175268 -0.971578
0.511 0.401 -0.0968432 -0.0273226 -0.0513165 -0.998309
0.511 0.599 -0.101747 -0.00680777 -0.0941928 -0.995531
0.489 0.401 -0.101672 0.0337788 -0.0220333 -0.999187
0.489 0.599 -0.0964066 -0.130493 0.0802883 -0.988193
0.511 0.39 -0.0960862 -0.0866204 0.139521 0.986423
0.511 0.61 -0.0979004 -0.159343 -0.111763 -0.980877
0.489 0.39 -0.0996822 0.0532181 -0.0657794 -0.996414
0.489 0.61 -0.101317 -0.0783413 0.0402356 -0.996114
0.511 0.379 -0.106516 -0.0787855 -0.0879438 0.993005
0.511 0.621 -0.104601 -0.097244 0.0855461 -0.991577
0.489 0.379 -0.101745 -0.0365645 0.0516277 0.997997
0.489 0.621 -0.0877744 0.545867 0.182446 0.817767
0.511 0.368 -0.0935243 -0.0257094 -0.0526376 -0.998283
0.511 0.632 -0.114738 -0.180548 -0.087246 0.979689
0.489 0.368 -0.0888357 -0.0350045 0.0725968 0.996747
0.489 0.632 -0.101922 -0.271493 -0.138918 -0.952362
0.511 0.357 -0.103528 0.0403757 -0.108115 0.993318
0.511 0.643 -0.103128 -0.205037 -0.136663 0.969166
0.489 0.357 -0.10115 0.145206 0.214011 -0.965979
0.489 0.643 -0.1088 -0.226741 -0.0242635 -0.973653
0.511 0.346 -0.0948068 -0.148962 -0.0679563 0.986505
0.511 0.654 -0.0995942 0.196909 0.102431 -0.975056
0.489 0.346 -0.107145 -0.0584518 0.13383 -0.989279
0.489 0.654 -0.0994936 -0.185752 -0.0420088 -0.981698
0.511 0.335 -0.107143 -0.0955351 0.0640956 0.99336
0.511 0.665 -0.0947367 -0.0823762 0.231641 0.969307
0.489 0.335 -0.102685 -0.0355556 -0.0932028 -0.995012
0.489 0.665 -0.107932 -0.0561453 0.0925536 -0.994124
0.511 0.324 -0.104731 0.0958829 0.044559 -0.994395
0.511 0.676 -0.0959548 -0.0497221 0.109819 0.992707
0.489 0.324 -0.0966558 -0.116446 -0.164966 -0.979401
0.489 0.676 -0.103687 -0.123681 0.022716 -0.992062
0.511 0.313 -0.0997805 -0.0817782 0.0990676 0.991715
0.511 0.687 -0.109195 0.00609655 -0.077459 -0.996977
0.489 0.313 -0.106889 0.0558709 0.103881 0.993019
0.489 0.687 -0.104321 0.197714 -0.0723643 0.977585
0.511 0.302 -0.0975596 -0.124827 0.0257094 0.991845
0.511 0.698 -0.107261 -0.0198599 0.10535 -0.994237
0.489 0.302 -0.102166 -0.0218456 0.0457849 -0.998712
0.489 0.698 -0.100204 -0.324065 0.105115 -0.940177
0.511 0.291 -0.0981585 -0.0327935 -0.193922 0.980469
0.511 0.709 -0.100631 -0.015206 -0.181355 0.9833
0.489 0.291 -0.100878 0.00550808 0.200744 -0.979628
0.489 0.709 -0.0972713 -0.206957 0.101606 -0.97306
0.511 0.28 -0.100266 0.038375 0.0769178 -0.996299
0.511 0.72 -0.0983923 -0.0124341 -0.149188 0.988731
0.489 0.28 -0.095643 0.0548903 0.167882 -0.984278
0.489 0.72 -0.105453 0.124476 0.068705 0.989841
0.511 0.269 -0.105142 -0.0215099 0.00913223 0.999727
0.511 0.731 -0.101732 0.00363117 -0.12371 0.992312
0.489 0.269 -0.0999331 -0.118794 0.0619528 0.990984
0.489 0.731 -0.100525 -0.0979936 -0.10348 -0.989792
0.511 0.258 -0.0943525 0.0695991 -0.0266122 -0.99722
0.511 0.742 -0.0994405 -0.0821228 -0.0816442 -0.993272
0.489 0.258 -0.104114 0.00974324 -0.225892 -0.974104
0.489 0.742 -0.0935568 -0.253034 -0.0183591 -0.967283
0.511 0.247 -0.102586 0.0201049 0.0770904 -0.996821
0.511 0.753 -0.102005 0.0574855 -0.0964619 -0.993675
0.489 0.247 -0.0917961 -0.0379823 -0.214462 -0.975994
0.489 0.753 -0.0958922 -0.227963 -0.109175 -0.96753
0.511 0.236 -0.101577 0.196934 -0.104156 0.974869
0.511 0.764 -0.105649 -0.136474 0.0782245 0.98755
0.489 0.236 -0.0947292 -0.254449 -0.0424274 -0.966155
0.489 0.764 -0.108814 -0.0791498 -0.0213529 -0.996634
0.511 0.225 -0.108138 0.143767 0.0503903 0.988328
0.511 0.775 -0.099026 0.186344 0.0496568 -0.981229
0.489 0.225 -0.087894 -0.23804 0.0359503 -0.97059
0.489 0.775 -0.0985455 -0.124703 0.0787882 -0.989061
0.511 0.214 -0.0931422 0.0814127 0.0996075 0.991691
0.511 0.786 -0.0977178 0.0655589 -0.0350076 -0.997234
0.489 0.214 -0.0992518 0.223566 0.00283233 0.974685
0.489 0.786 -0.097733 0.0759116 -0.145135 0.986495
0.511 0.203 -0.0966348 0.00912401 -0.0153423 -0.999841
0.511 0.797 -0.0988724 0.0678406 -0.090333 -0.993598
0.489 0.203 -0.0999732 0.0482744 -0.173345 0.983677
0.489 0.797 -0.104407 -0.0547669 0.132308 -0.989694
0.511 0.192 -0.0980243 0.0305072 -0.0915773 0.995331
0.511 0.808 -0.105093 -0.0769411 -0.0561999 -0.99545
0.489 0.192 -0.0990116 0.0264331 0.0547571 -0.99815
0.489 0.808 -0.097504 -0.241563 0.122792 -0.962585
0.511 0.181 -0.100381 -0.0308587 0.0684517 -0.997177
0.511 0.819 -0.107195 0.159262 0.0205061 0.987023
0.489 0.181 -0.0978735 -0.116286 0.0202225 -0.99301
0.489 0.819 -0.0889498 -0.498571 -0.0551361 -0.865094
0.511 0.17 -0.104436 -0.0686036 0.0504169 -0.996369
0.511 0.83 -0.109117 -0.157037 -0.154416 0.975446
0.489 0.17 -0.0998196 0.166192 -0.0376303 0.985375
0.489 0.83 -0.0875579 0.642182 0.000690859 0.766551
0.511 0.159 -0.103534 0.0872587 0.0276681 0.995801
0.511 0.841 -0.100661 -0.0182948 -0.0778588 0.996797
0.489 0.159 -0.101919 0.183504 0.000606827 0.983019
0.489 0.841 -0.103592 -0.0762657 -0.0862884 -0.993347
0.511 0.148 -0.100504 -0.0832662 -0.0491331 -0.995315
0.511 0.852 -0.0979545 0.0293211 0.17664 -0.983839
0.489 0.148 -0.0996782 -0.121793 0.0539476 -0.991088
0.489 0.852 -0.0989737 -0.091361 -0.0857835 -0.992116
0.511 0.137 -0.107286 -0.0374737 -0.159554 -0.986478
0.511 0.863 -0.101656 0.0788141 -0.0317291 0.996384
0.489 0.137 -0.0984037 -0.0365194 -0.0570758 -0.997702
0.489 0.863 -0.0970765 -0.0274146 -0.107435 -0.993834
0.511 0.126 -0.100721 -0.0563898 0.0563483 0.996818
0.511 0.874 -0.0931053 -0.0920577 -0.132801 -0.986858
0.489 0.126 -0.0963328 0.0210838 0.086593 0.996021
0.489 0.874 -0.0946192 -0.0238595 -0.134762 -0.990591
0.511 0.115 -0.100105 -0.0877245 0.0605009 0.994306
0.511 0.885 -0.0986894 0.0415734 0.15178 0.98754
0.489 0.115 -0.106849 0.00346521 -0.00503221 0.999981
0.489 0.885 -0.104358 0.0667582 -0.0434919 -0.996821
0.511 0.104 -0.100575 -0.0641465 -0.0680449 0.995618
0.511 0.896 -0.0961466 0.0017831 0.0460171 0.998939
0.489 0.104 -0.0992314 -0.0698918 0.0364971 0.996887
0.489 0.896 -0.103215 -0.0282254 -0.0456707 -0.998558
0.511 0.093 -0.0954454 -0.00725901 0.151361 -0.988452
0.511 0.907 -0.0966585 0.0222074 -0.0552554 0.998225
0.489 0.093 -0.10444 0.043567 -0.0550733 0.997531
0.489 0.907 -0.102156 -0.0914024 -0.0328195 0.995273
0.511 0.082 -0.110959 0.0444306 -0.091487 0.994815
0.511 0.918 -0.0970109 -0.0128386 0.00336784 0.999912
0.489 0.082 -0.096837 0.0054817 0.139023 -0.990274
0.489 0.918 -0.0991228 0.0975656 -0.0126453 -0.995149
0.511 0.071 -0.107426 0.0532165 -0.043679 0.997627
0.511 0.929 -0.0964357 -0.0481549 0.0330174 0.998294
0.489 0.071 -0.0985598 0.171522 0.158331 0.972374
0.489 0.929 -0.104178 -0.0763688 0.165169 0.983304
0.511 0.06 -0.111095 0.0388552 0.106533 0.99355
0.511 0.94 -0.108339 -0.124623 0.0647585 0.990089
0.489 0.06 -0.107484 0.192957 0.0911963 0.97696
0.489 0.94 -0.102945 -0.0131108 -0.0439514 -0.998948
0.511 0.049 -0.10307 0.146165 0.0873024 0.985401
0.511 0.951 -0.104603 0.0789499 -0.0138485 -0.996782
0.489 0.049 -0.0897791 0.0608041 0.0561479 0.996569
0.489 0.951 -0.104227 -0.0702977 0.0831972 -0.994051
0.511 0.038 -0.0985386 -0.198958 -0.0565103 -0.978377
0.511 0.962 -0.100235 0.0706154 0.0269596 -0.997139
0.489 0.038 -0.0954185 -0.0171764 -0.0767161 -0.996905
0.489 0.962 -0.104888 0.00840258 -0.0221949 0.999718
0.511 0.027 -0.103052 0.14153 0.0796701 0.986723
0.511 0.973 -0.0956547 -0.0951264 -0.137822 0.985878
0.489 0.027 -0.0976386 -0.0345385 -0.0272646 0.999031
0.489 0.973 -0.100182 0.0289843 -0.121594 0.992157
0.511 0.016 -0.10115 0.0129007 0.146682 0.9891
0.511 0.984 -0.101788 -0.0723238 -0.250481 0.965416
0.489 0.016 -0.0958508 0.0365005 -0.197218 -0.97968
0.489 0.984 -0.102775 0.00600173 0.167646 -0.985829
0.511 0.005 -0.104919 -0.0578576 -0.241613 -0.968646
0.511 0.995 -0.100309 -0.112931 -0.79324 0.598345
0.489 0.005 -0.101912 -0.0818821 0.203761 0.975591
0.489 0.995 -0.101836 -0.0459156 0.685001 -0.727094
0.522 0.5 -0.0992808 -0.0262142 0.149269 -0.988449
0.478 0.5 -0.0916584 -0.058803 0.129248 0.989867
0.522 0.489 -0.107871 -0.0494101 0.207997 -0.976881
0.522 0.511 -0.0949134 -0.0105382 -0.183422 0.982978
0.478 0.489 -0.099357 0.0446528 -0.0731129 0.996324
0.478 0.511 -0.103599 -0.220877 0.119597 0.967941
0.522 0.478 -0.105558 0.0298225 0.00862365 -0.999518
0.522 0.522 -0.0987648 0.0228674 -0.0711703 0.997202
0.478 0.478 -0.0956313 0.0221829 -0.173447 0.984593
0.478 0.522 -0.105372 -0.169542 -0.0143484 0.985418
0.522 0.467 -0.106026 -0.0385882 0.253427 0.966585
0.522 0.533 -0.0984992 -0.0241071 -0.125589 0.991789
0.478 0.467 -0.110304 -0.0469817 0.00944874 0.998851
0.478 0.533 -0.0979357 0.259401 0.38939 -0.883791
0.522 0.456 -0.103566 -0.026529 -0.102889 -0.994339
0.522 0.544 -0.105168 -0.0474379 0.050675 0.997588
0.478 0.456 -0.0938606 0.0558458 -0.0142538 -0.998338
0.478 0.544 -0.0968757 0.335259 0.365306 -0.86842
0.522 0.445 -0.0899815 0.0164724 -0.0483979 -0.998692
0.522 0.555 -0.10435 0.0569073 -0.217182 -0.974471
0.478 0.445 -0.100718 -0.0176065 0.11182 0.993573
0.478 0.555 -0.0975735 -0.206089 -0.0903049 0.974357
0.522 0.434 -0.101425 -0.0812851 -0.0709319 0.994164
0.522 0.566 -0.109797 -0.0700917 0.0452398 0.996514
0.478 0.434 -0.10573 -0.0458689 -0.0660534 0.996761
0.478 0.566 -0.0906111 -0.941751 -0.335095 -0.0285662
0.522 0.423 -0.104935 -0.0572323 -0.0385533 0.997616
0.522 0.577 -0.0994342 0.13679 0.0609566 -0.988723
0.478 0.423 -0.102774 0.0745972 -0.0137849 -0.997118
0.478 0.577 -0.0951699 -0.234799 -0.116981 -0.964979
0.522 0.412 -0.104864 -0.0121845 -0.000247817 -0.999926
0.522 0.588 -0.09814 0.0376673 -0.0414687 -0.99843
0.478 0.412 -0.0997529 0.0785135 -0.0729267 -0.994242
0.478 0.588 -0.096134 -0.436033 -0.0976376 -0.894618
0.522 0.401 -0.0898125 -0.0463058 0.0539221 0.997471
0.522 0.599 -0.102678 0.0508606 0.116407 0.991899
0.478 0.401 -0.0957256 0.00375243 -0.0492651 0.998779
0.478 0.599 -0.101286 -0.109853 -0.0467219 0.992849
0.522 0.39 -0.101839 0.00813696 -0.15141 -0.988438
0.522 0.61 -0.104013 0.0934188 -0.149674 -0.984312
0.478 0.39 -0.101633 0.0326443 -0.0759963 -0.996574
0.478 0.61 -0.103543 0.0138937 -0.0470173 0.998797
0.522 0.379 -0.0970453 0.00330638 -0.092162 0.995739
0.522 0.621 -0.0980027 0.0409526 0.0814602 -0.995835
0.478 0.379 -0.0961083 0.024601 -0.114325 -0.993139
0.478 0.621 -0.0945882 0.499488 0.0256092 0.865942
0.522 0.368 -0.0936343 -0.0430131 0.0161232 0.998944
0.522 0.632 -0.100144 0.112949 0.158322 -0.980906
0.478 0.368 -0.0986685 0.0159126 -0.10016 0.994844
0.478 0.632 -0.0950477 -0.453241 0.00998724 -0.891332
0.522 0.357 -0.106972 -0.0725953 -0.0145716 0.997255
0.522 0.643 -0.0917842 -0.0804665 -0.103693 0.991349
0.478 0.357 -0.0957553 0.0345275 0.130792 -0.990808
0.478 0.643 -0.102375 -0.236938 -0.138422 -0.961613
0.522 0.346 -0.0944958 0.0602728 -0.000814359 -0.998182
0.522 0.654 -0.0989276 0.023009 0.0138707 0.999639
0.478 0.346 -0.107175 -0.0653626 0.0193611 0.997674
0.478 0.654 -0.103393 -0.362576 0.0216221 -0.931704
0.522 0.335 -0.099387 -0.0675589 -0.00941271 0.997671
0.522 0.665 -0.102203 -0.0471043 0.152178 0.98723
0.478 0.335 -0.108612 0.124125 0.019768 0.99207
0.478 0.665 -0.0984216 0.447757 -0.0283149 0.893707
0.522 0.324 -0.0905777 -0.161747 0.0158315 0.986705
0.522 0.676 -0.101591 -0.0288311 0.161946 0.986378
0.478 0.324 -0.095285 0.0469816 0.19687 0.979303
0.478 0.676 -0.0987117 0.485958 -0.0272031 0.873559
0.522 0.313 -0.101721 0.0491823 -0.099438 -0.993828
0.522 0.687 -0.105082 -0.0485199 -0.0982473 -0.993979
0.478 0.313 -0.0878133 -0.0281404 -0.0495775 0.998374
0.478 0.687 -0.0995963 -0.381515 0.0812161 -0.920788
0.522 0.302 -0.0917619 -0.0646704 -0.0607346 0.996057
0.522 0.698 -0.101219 -0.128334 0.0801117 -0.98849
0.478 0.302 -0.0979046 -0.0931614 -0.112211 0.989308
0.478 0.698 -0.095013 -0.374375 0.0752031 -0.924223
0.522 0.291 -0.0993899 0.0151787 -0.0538943 0.998431
0.522 0.709 -0.104415 -0.0533498 0.135095 -0.989395
0.478 0.291 -0.0959568 0.096616 0.168494 -0.980956
0.478 0.709 -0.101179 -0.237527 -0.0117856 -0.97131
0.522 0.28 -0.103202 -0.133323 -0.0886973 0.987096
0.522 0.72 -0.0922055 -0.0445818 0.142252 -0.988826
0.478 0.28 -0.106746 0.0124478 0.126652 -0.991869
0.478 0.72 -0.094932 -0.509253 -0.0414401 -0.859619
0.522 0.269 -0.104936 0.0937925 -0.0140205 -0.995493
0.522 0.731 -0.0973197 0.00718947 0.100616 -0.994899
0.478 0.269 -0.106267 -0.0533084 0.0577543 0.996907
0.478 0.731 -0.0993728 -0.355444 0.00395849 -0.934689
0.522 0.258 -0.0987432 -0.0683512 0.0366964 0.996986
0.522 0.742 -0.0913378 0.0456796 -0.0822342 -0.995566
0.478 0.258 -0.106066 0.0561356 -0.234179 -0.970571
0.478 0.742 -0.104509 -0.315141 -0.0282045 -0.948626
0.522 0.247 -0.104943 0.0500766 0.185251 -0.981415
0.522 0.753 -0.0914063 -0.0701051 -0.05254 0.996155
0.478 0.247 -0.100375 -0.166591 0.267129 0.949152
0.478 0.753 -0.102589 -0.243702 -0.0290136 -0.969416
0.522 0.236 -0.100523 -0.204529 -0.10635 0.973066
0.522 0.764 -0.103407 -0.0534741 -0.0602065 0.996753
0.478 0.236 -0.0923794 -0.0411983 -0.18156 -0.982516
0.478 0.764 -0.0970839 -0.441004 -0.0856526 -0.893409
0.522 0.225 -0.100819 0.170916 -0.0122028 -0.98521
0.522 0.775 -0.100749 -0.082691 0.0526176 0.995185
0.478 0.225 -0.0947217 -0.0129949 -0.148322 0.988854
0.478 0.775 -0.106887 0.126696 0.0748175 0.989116
0.522 0.214 -0.0997592 -0.0242204 0.0756989 0.996837
0.522 0.786 -0.0991234 0.0375791 -0.0460564 -0.998232
0.478 0.214 -0.0901855 -0.0205638 -0.130084 0.99129
0.478 0.786 -0.101747 -0.189453 0.0949648 -0.977287
0.522 0.203 -0.103984 -0.00219189 -0.0916297 -0.995791
0.522 0.797 -0.103154 0.117402 -0.0810914 -0.989768
0.478 0.203 -0.10017 -0.0387148 -0.210289 0.976872
0.478 0.797 -0.088231 -0.984451 0.0225799 -0.174205
0.522 0.192 -0.100905 0.010286 0.147318 -0.989036
0.522 0.808 -0.101747 -0.132324 0.196734 0.971487
0.478 0.192 -0.0929629 0.0536379 -0.0744391 0.995782
0.478 0.808 -0.0984157 0.246914 0.115521 -0.962127
0.522 0.181 -0.104599 -0.0773377 -0.0865277 0.993243
0.522 0.819 -0.0911751 0.176531 -0.0140415 -0.984195
0.478 0.181 -0.103675 -0.0206174 -0.108035 -0.993933
0.478 0.819 -0.0949624 -0.418685 0.0750742 0.905023
0.522 0.17 -0.102268 0.0863508 0.0629299 -0.994275
0.522 0.83 -0.100368 -0.0264022 0.123699 -0.991969
0.478 0.17 -0.0926324 -0.0619611 0.0352725 -0.997455
0.478 0.83 -0.0959908 -0.31713 0.057618 0.94663
0.522 0.159 -0.0977574 -0.126918 -0.00951348 0.991868
0.522 0.841 -0.102719 -0.0255325 0.0735319 -0.996966
0.478 0.159 -0.0988228 0.0596646 0.00675139 0.998196
0.478 0.841 -0.0918076 -0.83036 0.108247 0.546612
0.522 0.148 -0.103217 0.115151 -0.0918236 -0.989095
0.522 0.852 -0.0941865 -0.122055 0.155649 -0.980243
0.478 0.148 -0.103046 0.109332 -0.0761898 0.991081
0.478 0.852 -0.0981697 -0.393101 0.0642459 0.917248
0.522 0.137 -0.0958482 0.0591074 -0.124018 -0.990518
0.522 0.863 -0.0950808 -0.12785 -0.0413578 -0.990931
0.478 0.137 -0.0989764 -0.0868145 0.0908402 -0.992074
0.478 0.863 -0.104231 -0.101395 0.0234144 0.994571
0.522 0.126 -0.100412 0.0222288 -0.14735 -0.988835
0.522 0.874 -0.0973142 0.210776 0.0715221 0.974914
0.478 0.126 -0.101569 -0.00421469 0.080047 0.996782
0.478 0.874 -0.0935077 0.0756371 -0.15151 -0.985558
0.522 0.115 -0.0927608 0.0168209 0.0600273 0.998055
0.522 0.885 -0.103277 0.235532 0.0331366 0.971301
0.478 0.115 -0.0955781 -0.0552019 -0.0564989 0.996875
0.478 0.885 -0.101321 0.0322894 -0.0347622 0.998874
0.522 0.104 -0.101095 -0.0595428 0.184841 -0.980963
0.522 0.896 -0.10483 -0.187668 -0.0615506 -0.980302
0.478 0.104 -0.0922556 -0.0840206 6.03127e-05 0.996464
0.478 0.896 -0.103284 0.037398 0.0688681 0.996925
0.522 0.093 -0.0990754 0.073447 -0.119541 0.990109
0.522 0.907 -0.110013 -0.139002 0.101506 -0.985076
0.478 0.093 -0.105242 0.0527009 -0.0365858 -0.99794
0.478 0.907 -0.0909765 0.0573231 0.0950438 0.993821
0.522 0.082 -0.106443 -0.027004 -0.0813479 0.99632
0.522 0.918 -0.10067 -0.0827028 -0.0202435 -0.996369
0.478 0.082 -0.0963632 0.0504553 -0.0616502 0.996822
0.478 0.918 -0.0985864 0.0352178 -0.0345827 -0.998781
0.522 0.071 -0.0983813 0.0682813 0.0827275 -0.99423
0.522 0.929 -0.100049 0.0521317 0.0296132 -0.998201
0.478 0.071 -0.100211 0.0633236 0.181161 0.981413
0.478 0.929 -0.100423 0.0496268 -0.124575 -0.990968
0.522 0.06 -0.103012 -0.0452649 0.122919 0.991384
0.522 0.94 -0.10043 0.0754937 -0.0389361 -0.996386
0.478 0.06 -0.106618 -0.00784002 -0.0857832 -0.996283
0.478 0.94 -0.0939782 -0.00652286 -0.0193244 0.999792
0.522 0.049 -0.102514 -0.00801311 -0.0243384 -0.999672
0.522 0.951 -0.096652 0.0693127 -0.0575479 -0.995934
0.478 0.049 -0.0949678 0.0823961 -0.0156482 -0.996477
0.478 0.951 -0.102538 0.0178334 0.0776831 -0.996819
0.522 0.038 -0.0989128 0.0701956 0.11441 0.990951
0.522 0.962 -0.101469 -0.0562981 -0.0488841 -0.997217
0.478 0.038 -0.0981675 -0.05939 0.0116804 0.998167
0.478 0.962 -0.0943541 0.0228179 -0.0383781 0.999003
0.522 0.027 -0.10519 -0.0129075 0.120934 0.992577
0.522 0.973 -0.104461 0.0684828 -0.0798916 0.994448
0.478 0.027 -0.104653 -0.15821 -0.0880069 0.983476
0.478 0.973 -0.0998674 -0.00467742 0.113712 -0.993503
0.522 0.016 -0.10615 -0.0363749 0.132694 0.990489
0.522 0.984 -0.106182 0.0040729 -0.20759 0.978208
0.478 0.016 -0.0971885 0.0983605 -0.100236 -0.99009
0.478 0.984 -0.10039 -0.0136486 0.331435 -0.943379
0.522 0.005 -0.0991576 -0.0822045 0.575063 0.813969
0.522 0.995 -0.101553 0.0217443 -0.334461 0.942159
0.478 0.005 -0.0996499 -0.119207 0.515623 0.848482
0.478 0.995 -0.0984938 0.00424779 0.692862 -0.721058
0.533 0.5 -0.100752 -0.0340834 0.225252 -0.973704
0.467 0.5 -0.0947964 0.0458356 -0.191595 -0.980403
0.533 0.489 -0.102362 0.0180433 0.147305 -0.988926
0.533 0.511 -0.0982279 -0.0207913 -0.135632 0.990541
0.467 0.489 -0.0967166 -0.0173247 0.0584087 -0.998142
0.467 0.511 -0.112632 0.117325 -0.1093 -0.98706
0.533 0.478 -0.102152 -0.144156 0.0884516 0.985594
0.533 0.522 -0.0962906 0.0375471 0.094399 -0.994826
0.467 0.478 -0.0998981 0.077465 -0.171124 0.982199
0.467 0.522 -0.101322 0.130093 0.0548335 -0.989984
0.533 0.467 -0.105035 0.119983 -0.153762 -0.980796
0.533 0.533 -0.0957581 0.0187629 0.116061 -0.993065
0.467 0.467 -0.104303 -0.180857 0.00242749 -0.983507
0.467 0.533 -0.104835 -0.135068 -0.180748 0.974211
0.533 0.456 -0.0940165 0.0861471 -0.1151 -0.989611
0.533 0.544 -0.0903754 0.0179908 -0.914561 0.404049
0.467 0.456 -0.102583 0.102506 0.00010382 0.994732
0.467 0.544 -0.0972423 -0.268262 -0.306661 0.913233
0.533 0.445 -0.0978472 0.0218825 -0.0581654 -0.998067
0.533 0.555 -0.0996242 -0.074054 0.215795 0.973627
0.467 0.445 -0.099871 0.0259997 -0.0016359 0.999661
0.467 0.555 -0.103564 0.210396 0.124587 -0.969645
0.533 0.434 -0.103877 -0.0256884 0.0674651 -0.997391
0.533 0.566 -0.0921044 0.00986435 0.287103 0.957849
0.467 0.434 -0.103128 -0.04195 0.00661058 0.999098
0.467 0.566 -0.0947007 -0.398186 0.0410198 0.916387
0.533 0.423 -0.0970642 0.0283943 -0.0127463 -0.999516
0.533 0.577 -0.100621 -0.0119134 -0.00936565 0.999885
0.467 0.423 -0.101005 -0.00718251 0.0149928 -0.999862
0.467 0.577 -0.0973195 -0.155 0.0900875 0.983798
0.533 0.412 -0.0993884 -0.0665027 -0.0381598 0.997056
0.533 0.588 -0.0903463 0.00170602 0.167099 0.985939
0.467 0.412 -0.0973159 -0.0521914 0.0633996 0.996623
0.467 0.588 -0.107486 -0.144061 0.0990913 0.984595
0.533 0.401 -0.098899 -0.0256881 0.0830801 0.996212
0.533 0.599 -0.0973439 0.0166692 0.0504251 0.998589
0.467 0.401 -0.105253 -0.0507517 0.103279 0.993357
0.467 0.599 -0.10857 -0.0600154 -0.0242577 0.997903
0.533 0.39 -0.106388 -0.0762187 -0.0691712 -0.994689
0.533 0.61 -0.106879 -0.0125114 0.0385522 0.999178
0.467 0.39 -0.099442 0.00411794 -0.014778 0.999882
0.467 0.61 -0.100461 -0.127078 -0.145757 0.981125
0.533 0.379 -0.0872582 0.0558256 0.0669302 0.996195
0.533 0.621 -0.10653 0.101042 0.0589886 -0.993132
0.467 0.379 -0.105055 0.0557767 -0.164702 -0.984765
0.467 0.621 -0.10008 0.023613 -0.0296624 -0.999281
0.533 0.368 -0.0998314 -0.0122013 0.0406784 0.999098
0.533 0.632 -0.096656 -0.0535321 -0.206379 0.977007
0.467 0.368 -0.101151 0.0993494 0.120096 -0.987779
0.467 0.632 -0.102937 -0.11554 0.0478751 0.992148
0.533 0.357 -0.103125 -0.0122131 0.0703528 -0.997447
0.533 0.643 -0.0982941 0.105256 0.019141 -0.994261
0.467 0.357 -0.0924022 -0.0494267 -0.178589 0.982682
0.467 0.643 -0.0992583 -0.0871002 -0.0564096 0.994601
0.533 0.346 -0.0987701 -0.0153252 -0.0582292 -0.998186
0.533 0.654 -0.090931 -0.00836105 -0.0429196 -0.999044
0.467 0.346 -0.11115 0.0487454 0.00795392 0.99878
0.467 0.654 -0.0950427 -0.432126 -0.0281424 -0.901374
0.533 0.335 -0.0929039 -0.0682227 0.0373514 0.996971
0.533 0.665 -0.106553 -0.00848795 -0.149716 -0.988693
0.467 0.335 -0.0938329 -0.0245299 -0.0512064 -0.998387
0.467 0.665 -0.0987564 -0.221153 0.0321109 -0.97471
0.533 0.324 -0.0988395 -0.0218154 0.0458763 -0.998709
0.533 0.676 -0.104598 0.017853 -0.144099 -0.989402
0.467 0.324 -0.0972983 -0.00882462 -0.159609 -0.987141
0.467 0.676 -0.0984782 -0.275227 -0.0110791 -0.961316
0.533 0.313 -0.103944 0.0218552 0.0042178 -0.999752
0.533 0.687 -0.10008 0.137616 -0.0760952 -0.987558
0.467 0.313 -0.0995298 0.01062 0.0361627 0.99929
0.467 0.687 -0.0942242 0.0411546 -0.0190016 -0.998972
0.533 0.302 -0.0965581 -0.0616306 0.0525521 -0.996715
0.533 0.698 -0.101176 0.170456 0.0668023 -0.983098
0.467 0.302 -0.101322 -0.0807343 0.140921 -0.986724
0.467 0.698 -0.0989351 0.127739 -0.016664 -0.991668
0.533 0.291 -0.0935641 0.0484761 0.0628005 -0.996848
0.533 0.709 -0.104643 0.0898683 0.148989 -0.984747
0.467 0.291 -0.0964941 0.0203357 0.238011 -0.97105
0.467 0.709 -0.098724 -0.116826 -0.078201 0.990069
0.533 0.28 -0.102365 -0.0229841 -0.0245739 0.999434
0.533 0.72 -0.0983137 -0.0139854 0.130994 -0.991285
0.467 0.28 -0.101239 -0.0505472 -0.115128 0.992064
0.467 0.72 -0.096305 0.0172204 0.0623056 0.997909
0.533 0.269 -0.0958824 0.100779 0.0040981 -0.9949
0.533 0.731 -0.107031 0.115724 -0.0964499 0.988588
0.467 0.269 -0.1114 0.0440565 0.0315791 -0.99853
0.467 0.731 -0.0986542 0.0502628 -0.018443 0.998566
0.533 0.258 -0.0931431 0.149785 -0.118426 -0.981601
0.533 0.742 -0.105116 -0.128293 -0.0139866 -0.991638
0.467 0.258 -0.100514 0.0728435 -0.157267 -0.984866
0.467 0.742 -0.1002 -0.0304913 0.000870351 0.999535
0.533 0.247 -0.0956536 0.124467 0.0928274 -0.987872
0.533 0.753 -0.0982401 0.103976 0.0185362 0.994407
0.467 0.247 -0.0894533 -0.165525 0.158764 0.973342
0.467 0.753 -0.094448 -0.333086 -0.0732672 -0.940046
0.533 0.236 -0.104571 0.152839 0.105295 -0.982626
0.533 0.764 -0.0927271 0.054959 -0.0409081 0.99765
0.467 0.236 -0.0997765 0.297389 -0.167215 -0.939999
0.467 0.764 -0.0999932 -0.0630799 -0.0607599 -0.996157
0.533 0.225 -0.109122 0.0670816 0.0556315 -0.996195
0.533 0.775 -0.0968275 -0.00512953 0.0349081 0.999377
0.467 0.225 -0.0947989 -0.267296 -0.0481685 0.96241
0.467 0.775 -0.0944488 -0.997046 0.0699688 -0.0316796
0.533 0.214 -0.0981351 -0.081386 0.0451583 0.995659
0.533 0.786 -0.0876731 -0.0705077 0.0420543 0.996624
0.467 0.214 -0.0913308 0.210449 0.111003 -0.971283
0.467 0.786 -0.108056 -0.0129334 -0.0157929 0.999792
0.533 0.203 -0.104768 -0.0452444 0.0385181 -0.998233
0.533 0.797 -0.100713 0.0899052 0.066423 0.993733
0.467 0.203 -0.11007 0.123332 0.163519 -0.978801
0.467 0.797 -0.105753 0.0852042 0.0294513 -0.995928
0.533 0.192 -0.0990017 -0.00173983 0.029765 -0.999555
0.533 0.808 -0.100753 -0.0273456 -0.0358841 -0.998982
0.467 0.192 -0.0989817 -0.0916848 0.0227166 0.995529
0.467 0.808 -0.0972397 -0.271301 -0.00718428 0.962468
0.533 0.181 -0.100453 -0.0577874 0.0462337 0.997258
0.533 0.819 -0.104659 0.0875639 -0.0538516 -0.994702
0.467 0.181 -0.108615 -0.0890264 0.0455652 0.994986
0.467 0.819 -0.0973635 0.426308 -0.0741286 -0.901536
0.533 0.17 -0.107436 0.0995335 0.0287478 -0.994619
0.533 0.83 -0.10207 -0.0261918 -0.00376022 0.99965
0.467 0.17 -0.0923815 -0.0616343 0.000280557 0.998099
0.467 0.83 -0.101505 -0.354914 0.0285631 0.934463
0.533 0.159 -0.107094 -0.0531244 0.0376232 0.997879
0.533 0.841 -0.0970586 0.105622 -0.0794757 0.991225
0.467 0.159 -0.0936279 -0.0119949 -0.101854 -0.994727
0.467 0.841 -0.107995 -0.167392 0.0393216 0.985106
0.533 0.148 -0.111447 -0.00911539 0.0820365 0.996588
0.533 0.852 -0.0987311 -0.109487 -0.0133897 -0.993898
0.467 0.148 -0.102299 -0.0576505 0.104072 -0.992898
0.467 0.852 -0.0995301 0.094563 -0.0899053 -0.991451
0.533 0.137 -0.104533 0.0206457 0.117232 0.99289
0.533 0.863 -0.103596 0.152628 0.000991954 0.988283
0.467 0.137 -0.104061 -0.00735524 0.0618446 -0.998059
0.467 0.863 -0.101099 -0.0738079 -0.0106769 0.997215
0.533 0.126 -0.0945387 -0.0335546 -0.040508 -0.998616
0.533 0.874 -0.100035 -0.0646917 -0.0710374 -0.995374
0.467 0.126 -0.100799 0.0155473 0.00870766 -0.999841
0.467 0.874 -0.101527 0.0234214 0.0461223 0.998661
0.533 0.115 -0.0982606 0.115311 -0.061188 0.991443
0.533 0.885 -0.106292 0.108353 0.130177 0.985552
0.467 0.115 -0.106707 0.048922 0.0683449 -0.996462
0.467 0.885 -0.0896266 -0.000454826 0.0359134 0.999355
0.533 0.104 -0.101005 0.0831581 -0.0795641 0.993355
0.533 0.896 -0.0966582 0.0774565 -0.0298116 0.99655
0.467 0.104 -0.0979564 -0.0274655 -0.0649557 -0.99751
0.467 0.896 -0.103494 -0.0432607 0.0727095 0.996414
0.533 0.093 -0.0977191 -0.00930577 -0.0991617 0.995028
0.533 0.907 -0.101645 -0.0630824 0.0907393 -0.993875
0.467 0.093 -0.105704 -0.0380661 -0.043103 -0.998345
0.467 0.907 -0.0954648 0.0751799 -0.0844722 -0.993586
0.533 0.082 -0.103163 -0.114729 0.0394641 0.992613
0.533 0.918 -0.101652 0.0299593 -0.0748203 0.996747
0.467 0.082 -0.0991967 0.10049 0.0349764 0.994323
0.467 0.918 -0.105901 0.0488813 -0.0354556 -0.998175
0.533 0.071 -0.102405 -0.193626 0.0240675 0.98078
0.533 0.929 -0.0947729 -0.0286289 -0.131041 0.990963
0.467 0.071 -0.108219 0.146009 0.130508 0.980637
0.467 0.929 -0.107585 -0.0339163 0.0988208 0.994527
0.533 0.06 -0.0970305 0.129577 0.0402233 -0.990753
0.533 0.94 -0.101993 -0.0326348 0.0512187 0.998154
0.467 0.06 -0.0905475 -0.0330109 0.0490794 -0.998249
0.467 0.94 -0.107979 0.0119033 -0.0394834 0.999149
0.533 0.049 -0.106326 0.0581589 0.00619284 -0.998288
0.533 0.951 -0.098529 -0.0919429 0.092711 0.991439
0.467 0.049 -0.0935025 0.0482168 0.0397888 -0.998044
0.467 0.951 -0.101995 -0.0483676 0.0746682 -0.996035
0.533 0.038 -0.104671 -0.0160931 0.0406155 0.999045
0.533 0.962 -0.102238 -0.0137697 0.0918939 0.995674
0.467 0.038 -0.101958 -0.178457 -0.091043 0.979727
0.467 0.962 -0.102507 0.0476052 -0.0494024 0.997644
0.533 0.027 -0.09248 -0.0307112 0.246247 0.96872
0.533 0.973 -0.09829 0.0571631 0.141865 -0.988234
0.467 0.027 -0.0996219 0.150236 -0.0173684 -0.988498
0.467 0.973 -0.100834 0.0132038 -0.0500937 0.998657
0.533 0.016 -0.0971277 -0.0269849 0.294961 0.955128
0.533 0.984 -0.103995 -0.0162594 0.239197 -0.970835
0.467 0.016 -0.0967428 0.0676698 -0.316889 -0.946045
0.467 0.984 -0.0987009 -0.00940892 -0.232215 0.972619
0.533 0.005 -0.0986991 -0.0704157 0.597335 0.798894
0.533 0.995 -0.0937865 -0.0853217 0.902123 -0.42296
0.467 0.005 -0.113106 -0.0632532 0.0640474 0.99594
0.467 0.995 -0.104353 -0.0585752 -0.481458 0.87451
0.544 0.5 -0.101536 -0.0446062 -0.177807 0.983054
0.456 0.5 -0.105553 0.109919 -0.215113 -0.970384
0.544 0.489 -0.101066 -0.175208 0.0095883 0.984485
0.544 0.511 -0.0976911 0.0689146 -0.125241 0.98973
0.456 0.489 -0.102527 0.0345407 -0.156421 -0.987086
0.456 0.511 -0.0997517 -0.0425655 0.138367 0.989466
0.544 0.478 -0.106993 0.211489 -0.0857204 -0.973614
0.544 0.522 -0.0944918 -0.13169 0.130174 -0.982707
0.456 0.478 -0.0994642 0.139909 -0.0656681 0.987984
0.456 0.522 -0.112878 -0.00196939 0.141115 -0.989991
0.544 0.467 -0.0944991 0.165358 -0.0886582 -0.98224
0.544 0.533 -0.0984502 0.000564024 -0.176302 0.984336
0.456 0.467 -0.105747 0.172221 -0.0163992 0.984922
0.456 0.533 -0.102025 0.0859725 0.149411 -0.985031
0.544 0.456 -0.100887 0.118767 -0.0642479 -0.990841
0.544 0.544 -0.0941715 0.0173849 0.0728581 -0.997191
0.456 0.456 -0.106351 -0.200605 -0.000827973 -0.979672
0.456 0.544 -0.1054 -0.156283 -0.173613 0.972335
0.544 0.445 -0.10448 0.0467392 0.0609064 -0.997049
0.544 0.555 -0.0984746 -0.11326 0.272106 0.955579
0.456 0.445 -0.0956655 -0.16598 0.0836722 -0.982573
0.456 0.555 -0.100144 0.300406 0.212207 -0.929906
0.544 0.434 -0.0946555 0.0135287 0.025368 -0.999587
0.544 0.566 -0.0971048 0.0521423 -0.278196 -0.959108
0.456 0.434 -0.0999162 0.138377 -0.0255155 0.990051
0.456 0.566 -0.0959492 0.344869 -0.0436295 -0.937636
0.544 0.423 -0.0965271 -0.0446425 0.00493089 -0.998991
0.544 0.577 -0.102436 0.00714171 0.0477988 0.998831
0.456 0.423 -0.112908 0.0954795 -0.0669973 0.993174
0.456 0.577 -0.100172 0.253063 -0.108107 -0.961391
0.544 0.412 -0.0993821 -0.0533371 0.00759858 -0.998548
0.544 0.588 -0.10213 -0.0108727 -0.104238 -0.994493
0.456 0.412 -0.0986918 0.0173071 0.0109962 -0.99979
0.456 0.588 -0.108285 -0.164935 0.0518941 0.984938
0.544 0.401 -0.0974081 0.109322 -0.00222184 0.994004
0.544 0.599 -0.0999213 0.0784264 -0.0185287 -0.996748
0.456 0.401 -0.0985445 -0.0738904 0.0590483 0.995517
0.456 0.599 -0.0995066 -0.269805 -0.114646 0.956066
0.544 0.39 -0.104815 -0.0553622 0.000421938 -0.998466
0.544 0.61 -0.109547 0.11391 0.0542631 -0.992008
0.456 0.39 -0.0993727 -0.0831528 0.0100325 0.996486
0.456 0.61 -0.0979361 0.154081 0.200502 -0.967501
0.544 0.379 -0.0945613 0.0655328 0.116998 0.990968
0.544 0.621 -0.098235 -0.0410915 -0.0180111 0.998993
0.456 0.379 -0.0973901 -0.0793357 0.0779414 0.993796
0.456 0.621 -0.0984621 0.214487 -0.0463919 -0.975624
0.544 0.368 -0.0966345 0.0545027 -0.00993512 -0.998464
0.544 0.632 -0.100132 -0.0570184 0.198187 -0.978504
0.456 0.368 -0.0986829 -0.120449 -0.0730106 0.990031
0.456 0.632 -0.0955306 0.228135 -0.114372 -0.966889
0.544 0.357 -0.0940429 -0.0352724 0.0639655 -0.997329
0.544 0.643 -0.101682 0.0809147 -0.00506796 0.996708
0.456 0.357 -0.0880932 0.102255 -0.0649069 -0.992638
0.456 0.643 -0.0985216 -0.0880824 -0.0726641 0.993459
0.544 0.346 -0.104457 -0.0220045 -0.00950799 0.999713
0.544 0.654 -0.0993325 0.0406337 0.0494917 0.997948
0.456 0.346 -0.106449 -0.0012788 0.0202044 -0.999795
0.456 0.654 -0.102952 -0.0184526 0.0714708 -0.997272
0.544 0.335 -0.0893321 0.126497 0.0479833 0.990806
0.544 0.665 -0.103073 -0.0239095 0.0415358 0.998851
0.456 0.335 -0.100457 -0.0475378 -0.0754879 -0.996013
0.456 0.665 -0.0926248 -0.493928 -0.0311379 0.868945
0.544 0.324 -0.10108 0.0531579 -0.0279421 0.998195
0.544 0.676 -0.0936312 0.0802161 -0.127796 -0.988551
0.456 0.324 -0.0968098 -0.0268166 0.18248 0.982844
0.456 0.676 -0.0941955 0.314704 0.0321009 -0.948647
0.544 0.313 -0.0913308 -0.0840326 0.0106891 -0.996406
0.544 0.687 -0.105572 -0.110632 -0.0263788 0.993511
0.456 0.313 -0.10185 0.131333 0.0495299 -0.9901
0.456 0.687 -0.103245 -0.195761 0.0425521 0.979728
0.544 0.302 -0.113646 -0.0117234 -1.93774e-05 -0.999931
0.544 0.698 -0.107314 0.0924054 -0.0105923 -0.995665
0.456 0.302 -0.101577 0.187322 0.0640701 -0.980207
0.456 0.698 -0.0934757 0.332587 -0.130064 -0.934061
0.544 0.291 -0.0937197 -0.0617958 0.0561348 -0.996509
0.544 0.709 -0.108445 0.0404928 0.0388949 -0.998423
0.456 0.291 -0.104696 0.0291423 -0.182972 0.982686
0.456 0.709 -0.0939705 -0.353923 -0.0609175 0.933289
0.544 0.28 -0.101814 -0.0248615 -0.0671011 -0.997436
0.544 0.72 -0.100274 -0.014373 0.0164039 -0.999762
0.456 0.28 -0.105611 -0.00112024 0.0818857 -0.996641
0.456 0.72 -0.100713 0.175254 0.0489003 -0.983308
0.544 0.269 -0.099052 -0.0025348 -0.075843 -0.997117
0.544 0.731 -0.0938299 -0.102724 -0.0785466 -0.991604
0.456 0.269 -0.0986434 0.0479422 0.0757365 0.995975
0.456 0.731 -0.0881021 -0.441317 -0.103436 0.89137
0.544 0.258 -0.0978706 -0.0335808 0.0258706 0.999101
0.544 0.742 -0.0974792 -0.168365 0.0197449 -0.985527
0.456 0.258 -0.104718 -0.0757086 -0.0727123 -0.994475
0.456 0.742 -0.102913 0.0436579 -0.036524 -0.998379
0.544 0.247 -0.099239 0.0229427 -0.108497 0.993832
0.544 0.753 -0.105236 0.106586 -0.0772954 0.991295
0.456 0.247 -0.0995967 -0.016444 0.0748815 0.997057
0.456 0.753 -0.0966825 -0.215691 0.0541286 0.97496
0.544 0.236 -0.0874053 -0.000488668 0.143659 -0.989627
0.544 0.764 -0.0936425 -0.0774307 0.150298 -0.985604
0.456 0.236 -0.111399 0.169057 -0.00114633 -0.985606
0.456 0.764 -0.0935561 -0.487491 0.0368249 0.872351
0.544 0.225 -0.0957983 0.0143108 0.0753905 -0.997051
0.544 0.775 -0.104098 0.000480517 -0.0168534 0.999858
0.456 0.225 -0.0993423 -0.257836 -0.000376991 0.966189
0.456 0.775 -0.0985275 -0.0963261 0.0956696 0.990741
0.544 0.214 -0.102132 -0.0274515 0.0303686 0.999162
0.544 0.786 -0.104083 -0.0116957 0.0797435 0.996747
0.456 0.214 -0.104557 -0.188757 0.0146366 0.981915
0.456 0.786 -0.106481 -0.027524 0.0100483 -0.999571
0.544 0.203 -0.103715 0.0370493 0.0449923 -0.9983
0.544 0.797 -0.1011 0.0548873 -0.146714 -0.987655
0.456 0.203 -0.0950991 0.157043 0.108597 -0.981603
0.456 0.797 -0.0942151 0.217318 -0.0235398 -0.975817
0.544 0.192 -0.0898245 -0.00742603 0.058222 0.998276
0.544 0.808 -0.0904119 -0.0313068 -0.0329212 -0.998968
0.456 0.192 -0.102354 0.09676 -0.0514941 -0.993975
0.456 0.808 -0.101181 -0.212209 0.0363482 0.976548
0.544 0.181 -0.105169 -0.0329183 -0.00177962 0.999457
0.544 0.819 -0.109979 -0.0251366 0.0267589 -0.999326
0.456 0.181 -0.103962 0.0883076 -0.0699691 -0.993633
0.456 0.819 -0.107274 0.122985 -0.152147 -0.980676
0.544 0.17 -0.0922919 0.0359639 -0.0522809 0.997985
0.544 0.83 -0.0968498 0.0308371 0.101306 0.994377
0.456 0.17 -0.0978319 0.00755581 -0.107626 -0.994163
0.456 0.83 -0.101272 -0.284139 -0.0104681 0.958726
0.544 0.159 -0.0944383 0.0215922 -0.0340033 0.999189
0.544 0.841 -0.110738 0.0118094 -0.0614979 0.998037
0.456 0.159 -0.105645 0.00099843 0.0800411 0.996791
0.456 0.841 -0.108674 0.177258 0.0368876 -0.983473
0.544 0.148 -0.0937933 -0.0197132 -0.0388787 -0.999049
0.544 0.852 -0.103869 -0.0584005 -0.0042729 -0.998284
0.456 0.148 -0.094 -0.0144112 0.0500158 -0.998644
0.456 0.852 -0.0988197 -0.0764739 -0.00141835 0.997071
0.544 0.137 -0.0995138 0.0620509 0.049429 0.996848
0.544 0.863 -0.0993743 0.0983827 0.00664243 0.995127
0.456 0.137 -0.095508 0.0441963 -0.120257 0.991759
0.456 0.863 -0.108978 0.0344868 -0.0161721 0.999274
0.544 0.126 -0.102728 0.188313 -0.00678801 0.982086
0.544 0.874 -0.112674 -0.0215726 -0.0104076 0.999713
0.456 0.126 -0.101141 0.0196004 0.0970367 -0.995088
0.456 0.874 -0.102333 0.0554022 0.0668874 0.996221
0.544 0.115 -0.0971134 -0.196672 -0.00224857 -0.980467
0.544 0.885 -0.101064 0.122961 0.00448532 -0.992401
0.456 0.115 -0.101262 0.0429392 -0.00170358 -0.999076
0.456 0.885 -0.0992263 -0.0842224 0.0540088 0.994982
0.544 0.104 -0.106342 0.182984 -0.0415914 0.982236
0.544 0.896 -0.102159 0.159431 -0.0133622 -0.987119
0.456 0.104 -0.101192 0.0020837 -0.0919684 -0.99576
0.456 0.896 -0.0977809 -0.0750562 0.11774 0.990204
0.544 0.093 -0.10971 -0.0479392 -0.0177021 -0.998693
0.544 0.907 -0.105616 -0.0445675 -0.0192648 0.998821
0.456 0.093 -0.104437 0.0897227 0.109656 0.989912
0.456 0.907 -0.100371 0.177659 -0.0944412 -0.97955
0.544 0.082 -0.100714 -0.0358559 -0.0949521 -0.994836
0.544 0.918 -0.100102 -0.0293761 0.157587 -0.987068
0.456 0.082 -0.0955024 0.156992 0.137204 0.978023
0.456 0.918 -0.103673 -0.063125 0.0642093 0.995938
0.544 0.071 -0.0983144 -0.0281813 0.00373559 0.999596
0.544 0.929 -0.102742 0.0590941 0.0907592 -0.994118
0.456 0.071 -0.0944744 0.169019 0.029027 0.985185
0.456 0.929 -0.0992873 -0.0713394 -0.0234105 0.997177
0.544 0.06 -0.0990219 0.047699 0.0621935 -0.996924
0.544 0.94 -0.0948613 0.0402214 -0.00231953 -0.999188
0.456 0.06 -0.0988736 -0.0563233 0.139712 -0.988589
0.456 0.94 -0.103354 0.0776723 -0.0642644 0.994906
0.544 0.049 -0.0992294 -0.0361692 -0.0716072 0.996777
0.544 0.951 -0.0982091 0.0172677 0.141059 0.989851
0.456 0.049 -0.0972654 -0.0258298 -0.0953885 0.995105
0.456 0.951 -0.0985655 0.040304 0.0492583 -0.997973
0.544 0.038 -0.106018 0.0460827 0.0439575 0.99797
0.544 0.962 -0.105052 -0.029889 0.0394619 0.998774
0.456 0.038 -0.107462 0.140869 0.186428 -0.972317
0.456 0.962 -0.103608 0.0564901 0.0324857 -0.997875
0.544 0.027 -0.103129 0.0349707 0.191098 0.980948
0.544 0.973 -0.112082 0.100802 -0.000999086 -0.994906
0.456 0.027 -0.0967802 -0.159932 0.110469 0.980927
0.456 0.973 -0.100944 0.0701936 0.100497 -0.992458
0.544 0.016 -0.0910708 0.0585236 0.474314 0.878408
0.544 0.984 -0.0980609 -0.09912 -0.349761 0.931581
0.456 0.016 -0.106097 -0.0237486 0.224215 0.97425
0.456 0.984 -0.100931 -0.00271199 -0.258511 0.966004
0.544 0.005 -0.0963765 -0.0882316 -0.640045 -0.763255
0.544 0.995 -0.0977472 0.0241574 0.622395 -0.782331
0.456 0.005 -0.103753 -0.0593981 -0.384686 -0.921135
0.456 0.995 -0.102326 -0.0918703 -0.593651 0.799461
0.555 0.5 -0.0998296 0.1078 0.113063 -0.987723
0.445 0.5 -0.0947797 0.0219685 0.224889 0.974137
0.555 0.489 -0.104088 0.108157 -0.0836844 -0.990605
0.555 0.511 -0.100359 0.0122952 -0.0170461 -0.999779
0.445 0.489 -0.0995464 -0.0461154 -0.150052 -0.987602
0.445 0.511 -0.106647 -0.137241 0.0353754 -0.989906
0.555 0.478 -0.0968606 0.147688 -0.0825063 -0.985587
0.555 0.522 -0.0901635 0.0594954 -0.145157 0.987618
0.445 0.478 -0.090764 0.16082 0.0713055 0.984405
0.445 0.522 -0.101394 -0.093653 0.0154131 -0.995486
0.555 0.467 -0.0900284 0.113011 -0.0288344 -0.993175
0.555 0.533 -0.102181 -0.151306 0.170506 -0.97367
0.445 0.467 -0.0905376 0.103576 0.0351135 0.994002
0.445 0.533 -0.102596 -0.0737774 0.0730971 -0.994592
0.555 0.456 -0.0974308 0.0419761 0.00142682 -0.999118
0.555 0.544 -0.100775 -0.128028 0.0724218 -0.989123
0.445 0.456 -0.0927839 -0.208369 -0.00501166 -0.978038
0.445 0.544 -0.102208 -0.0292718 0.170332 -0.984952
0.555 0.445 -0.0982102 0.0697869 -0.181288 0.980951
0.555 0.555 -0.0948145 -0.0431945 -0.28321 -0.958085
0.445 0.445 -0.101294 -0.19165 0.0601592 -0.979618
0.445 0.555 -0.103385 0.0155774 0.0325384 -0.999349
0.555 0.434 -0.0993028 -0.0926179 0.0933965 -0.991312
0.555 0.566 -0.0989392 0.0817379 -0.205205 -0.9753
0.445 0.434 -0.0923975 -0.0917729 0.193553 -0.976788
0.445 0.566 -0.0953414 -0.159936 -0.0714084 0.984541
0.555 0.423 -0.101944 0.119939 0.020099 0.992578
0.555 0.577 -0.108692 0.11222 -0.0889613 -0.989693
0.445 0.423 -0.0989242 -0.0118428 -0.0362833 0.999271
0.445 0.577 -0.104463 -0.0259873 0.146227 0.98891
0.555 0.412 -0.0923337 0.151479 -0.0400414 0.987649
0.555 0.588 -0.101023 0.113602 -0.0167576 -0.993385
0.445 0.412 -0.106092 0.0527272 -0.0733738 0.99591
0.445 0.588 -0.102475 -0.0444701 0.00817679 0.998977
0.555 0.401 -0.102372 0.0412029 0.0398104 0.998357
0.555 0.599 -0.103596 0.0793231 0.000966756 -0.996848
0.445 0.401 -0.0999919 0.121883 0.00845435 0.992509
0.445 0.599 -0.103552 -0.0343219 -0.132955 0.990528
0.555 0.39 -0.101927 -0.0206026 0.115118 0.993138
0.555 0.61 -0.0934919 -0.08675 0.0180014 0.996067
0.445 0.39 -0.10139 -0.0294223 -0.0198381 -0.99937
0.445 0.61 -0.092263 -0.248217 -0.16489 0.954568
0.555 0.379 -0.103941 -0.00163988 -0.102718 -0.994709
0.555 0.621 -0.101682 -0.0315308 0.0447486 0.998501
0.445 0.379 -0.100676 -0.0516424 -0.00223963 0.998663
0.445 0.621 -0.100948 0.0274413 0.000190776 -0.999623
0.555 0.368 -0.0938437 0.105265 -0.0314602 0.993947
0.555 0.632 -0.0967519 0.011585 -0.0544727 0.998448
0.445 0.368 -0.101173 0.0818188 0.0157425 -0.996523
0.445 0.632 -0.104646 -0.0522706 0.0408116 0.997799
0.555 0.357 -0.103246 0.0864522 0.00584317 0.996239
0.555 0.643 -0.104369 0.160903 -0.0123565 0.986893
0.445 0.357 -0.109574 0.0682172 0.000446502 -0.99767
0.445 0.643 -0.103003 -0.174693 -0.0546609 0.983105
0.555 0.346 -0.101342 0.0640758 -0.0495094 0.996716
0.555 0.654 -0.0906612 0.0929972 -0.0083161 0.995632
0.445 0.346 -0.101548 0.107386 -0.0482982 -0.993044
0.445 0.654 -0.10007 -0.239382 -0.0591931 0.969119
0.555 0.335 -0.101003 -0.0841602 0.00274087 -0.996448
0.555 0.665 -0.101307 -0.0760811 -0.0137378 -0.997007
0.445 0.335 -0.0930922 -0.157705 -0.0125366 0.987407
0.445 0.665 -0.0871168 -0.292964 0.0406774 0.955258
0.555 0.324 -0.0991321 -0.0650815 -0.0135743 -0.997788
0.555 0.676 -0.0973633 0.056348 -0.0238537 -0.998126
0.445 0.324 -0.10888 -0.0828327 -0.0151322 0.996449
0.445 0.676 -0.0972438 -0.270233 0.0449979 0.961743
0.555 0.313 -0.104379 -0.0739806 0.0325704 -0.996728
0.555 0.687 -0.0977831 -0.0664388 0.0332594 0.997236
0.445 0.313 -0.0978345 0.0767558 0.02569 -0.996719
0.445 0.687 -0.102812 0.200843 -0.0633206 -0.977575
0.555 0.302 -0.0954769 -0.0497786 -0.0381558 -0.998031
0.555 0.698 -0.0920045 0.0090496 -0.0667221 -0.997731
0.445 0.302 -0.085171 -0.0262673 0.0346726 -0.999053
0.445 0.698 -0.106126 -0.184109 0.0339736 0.982319
0.555 0.291 -0.100739 0.0288269 -0.0762486 0.996672
0.555 0.709 -0.0942425 -0.069603 -0.10636 0.991889
0.445 0.291 -0.0970928 0.0636336 0.0331756 -0.997422
0.445 0.709 -0.100668 -0.135919 -0.0925933 0.986384
0.555 0.28 -0.0959289 0.0960606 -0.112133 0.989039
0.555 0.72 -0.0969238 0.0260366 0.00470741 -0.99965
0.445 0.28 -0.107946 -0.0540662 0.0842214 -0.994979
0.445 0.72 -0.100272 -0.1388 -0.111976 0.98397
0.555 0.269 -0.102055 0.133902 0.0669576 0.98873
0.555 0.731 -0.101404 0.0553556 -0.104888 -0.992942
0.445 0.269 -0.0988877 0.0859822 0.110671 0.990131
0.445 0.731 -0.0996659 0.166033 -0.0129199 -0.986036
0.555 0.258 -0.0943895 -0.234986 -0.0592547 -0.970191
0.555 0.742 -0.106738 0.0121236 -0.0159876 0.999799
0.445 0.258 -0.101683 0.0923141 0.0884835 0.991791
0.445 0.742 -0.100705 -0.132703 0.00122648 0.991155
0.555 0.247 -0.0934074 -0.113579 0.0614909 -0.991624
0.555 0.753 -0.10895 -0.0306267 0.0717116 -0.996955
0.445 0.247 -0.105115 0.00666101 0.0830894 -0.99652
0.445 0.753 -0.10268 -0.141326 0.109214 0.98392
0.555 0.236 -0.103928 -0.00691873 -0.0606978 0.998132
0.555 0.764 -0.103136 0.0530348 -0.0933728 0.994218
0.445 0.236 -0.106304 -0.0829756 -0.0642357 0.994479
0.445 0.764 -0.0995967 -0.122072 0.0448903 0.991506
0.555 0.225 -0.0989223 -0.0627448 -0.0333358 0.997473
0.555 0.775 -0.0951079 0.0734973 -0.0490027 0.996091
0.445 0.225 -0.100344 -0.135773 0.0548265 0.989222
0.445 0.775 -0.114188 -0.0678562 -0.0195731 0.997503
0.555 0.214 -0.0993836 -0.0158853 0.00599605 -0.999856
0.555 0.786 -0.0982245 0.0823857 0.0220145 0.996357
0.445 0.214 -0.104992 -0.0404511 0.0491108 0.997974
0.445 0.786 -0.100269 -0.0724078 0.0222054 0.997128
0.555 0.203 -0.0981601 0.0184513 -0.0414069 0.998972
0.555 0.797 -0.1116 -0.0352656 0.107379 0.993593
0.445 0.203 -0.104028 -0.00341201 -0.0179793 0.999833
0.445 0.797 -0.0954136 -0.0962031 0.0167299 0.995221
0.555 0.192 -0.103505 0.0253045 0.00193938 0.999678
0.555 0.808 -0.100634 0.0277709 0.00299746 -0.99961
0.445 0.192 -0.0991253 -0.0925958 -0.0480351 -0.994544
0.445 0.808 -0.100604 -0.0857521 0.0707239 0.993803
0.555 0.181 -0.101007 0.087167 -0.00985643 0.996145
0.555 0.819 -0.101697 -0.0222559 0.0124831 0.999674
0.445 0.181 -0.0973002 0.0486617 0.0681591 0.996487
0.445 0.819 -0.100646 -0.138817 0.184309 0.973016
0.555 0.17 -0.0989432 0.029283 -0.0159336 0.999444
0.555 0.83 -0.101029 0.0809002 -0.0873738 -0.992885
0.445 0.17 -0.107278 0.0358748 0.112053 0.993055
0.445 0.83 -0.104623 -0.0305344 -0.0351918 0.998914
0.555 0.159 -0.102132 0.144492 -0.0490339 -0.98829
0.555 0.841 -0.100007 -0.079409 -0.0755095 0.993978
0.445 0.159 -0.0996402 -0.0236452 0.0502308 0.998458
0.445 0.841 -0.100445 0.0631993 0.124272 -0.990233
0.555 0.148 -0.1073 -0.0632404 -0.120203 0.990733
0.555 0.852 -0.106124 0.141274 -0.109748 -0.983868
0.445 0.148 -0.0935552 -0.0563668 -0.00779076 0.99838
0.445 0.852 -0.0937452 -0.134977 -0.101194 0.985668
0.555 0.137 -0.10208 0.0898991 -0.0464923 0.994865
0.555 0.863 -0.0975223 0.116729 0.0774119 -0.990142
