ply
format ascii 1.0
comment VCGLIB generated
element vertex 376
property float x
property float y
property float z
property float nx
property float ny
property float nz
element face 0
property list uchar int vertex_indices
end_header
0.549212 0.997597 0.766111 0 0 0 
0.312451 0.989528 0.879749 0 0 0 
0.754715 0.996357 0.731114 0 0 0 
0.052713 0.94228 0.712575 0 0 0 
0.472955 0.999665 0.411297 0 0 0 
0.406167 0.998646 0.670966 0 0 0 
0.263729 0.9961 0.772951 0 0 0 
0.83585 0.995655 0.343254 0 0 0 
0.433389 0.999572 0.587843 0 0 0 
0.635855 0.996022 0.166613 0 0 0 
0.681827 0.952963 0.937047 0 0 0 
0.950193 0.939754 0.679133 0 0 0 
0.765894 0.995934 0.243416 0 0 0 
0.643647 0.99765 0.730498 0 0 0 
0.169776 0.977514 0.902259 0 0 0 
0.662445 0.999233 0.465424 0 0 0 
0.135906 0.993408 0.51269 0 0 0 
0.625722 0.998835 0.383551 0 0 0 
0.595426 0.99958 0.542504 0 0 0 
0.290754 0.992938 0.860047 0 0 0 
0.846304 0.99637 0.576874 0 0 0 
0.493193 0.997034 0.808343 0 0 0 
0.806064 0.995673 0.282522 0 0 0 
0.513073 0.967123 0.0772554 0 0 0 
0.656643 0.991448 0.128021 0 0 0 
0.422222 0.985996 0.108603 0 0 0 
0.688183 0.961128 0.928691 0 0 0 
0.64959 0.996427 0.804466 0 0 0 
0.808333 0.996956 0.508866 0 0 0 
0.0921408 0.975016 0.76397 0 0 0 
0.425549 0.955927 0.0654029 0 0 0 
0.543239 0.998375 0.708303 0 0 0 
0.264607 0.996193 0.769321 0 0 0 
0.82148 0.995851 0.33362 0 0 0 
0.324556 0.998835 0.487307 0 0 0 
0.0737076 0.96429 0.610947 0 0 0 
0.641368 0.998795 0.613342 0 0 0 
0.47687 0.951461 0.0604873 0 0 0 
0.597333 0.996417 0.175043 0 0 0 
0.066358 0.949204 0.120771 0 0 0 
0.065807 0.955228 0.75699 0 0 0 
0.2932 0.998488 0.48925 0 0 0 
0.28102 0.996606 0.254511 0 0 0 
0.716449 0.998078 0.60476 0 0 0 
0.830463 0.971461 0.0874964 0 0 0 
0.066436 0.956511 0.288412 0 0 0 
0.19375 0.995099 0.239716 0 0 0 
0.875708 0.991232 0.510741 0 0 0 
0.924637 0.963691 0.183862 0 0 0 
0.243962 0.996302 0.263406 0 0 0 
0.788408 0.994369 0.168812 0 0 0 
0.421324 0.999751 0.489806 0 0 0 
0.301654 0.997887 0.673294 0 0 0 
0.492174 0.997821 0.237883 0 0 0 
0.381169 0.998571 0.348092 0 0 0 
0.618426 0.997806 0.27633 0 0 0 
0.505416 0.994452 0.856847 0 0 0 
0.547846 0.9977 0.760488 0 0 0 
0.503891 0.999731 0.417851 0 0 0 
0.61866 0.998025 0.708416 0 0 0 
0.785386 0.996251 0.696702 0 0 0 
0.487151 0.995952 0.150651 0 0 0 
0.718085 0.981877 0.103151 0 0 0 
0.83779 0.995018 0.714577 0 0 0 
0.546029 0.983231 0.103452 0 0 0 
0.384385 0.999394 0.474506 0 0 0 
0.486779 0.999072 0.341666 0 0 0 
0.282982 0.995328 0.83154 0 0 0 
0.452929 0.997602 0.230485 0 0 0 
0.842666 0.993536 0.180482 0 0 0 
0.470429 0.998926 0.331867 0 0 0 
0.617248 0.999155 0.586545 0 0 0 
0.102585 0.982028 0.700745 0 0 0 
0.620373 0.962549 0.928349 0 0 0 
0.906211 0.972953 0.85965 0 0 0 
0.150035 0.994643 0.287745 0 0 0 
0.859235 0.994319 0.562131 0 0 0 
0.312813 0.997187 0.739198 0 0 0 
0.460674 0.999955 0.531311 0 0 0 
0.601497 0.998735 0.651166 0 0 0 
0.712884 0.996342 0.772446 0 0 0 
0.41679 0.998229 0.714477 0 0 0 
0.0651251 0.955107 0.274527 0 0 0 
0.637933 0.997625 0.734549 0 0 0 
0.196311 0.994233 0.82058 0 0 0 
0.928791 0.960207 0.76715 0 0 0 
0.944839 0.946469 0.56011 0 0 0 
0.498107 0.999381 0.36678 0 0 0 
0.72909 0.995509 0.808006 0 0 0 
0.743171 0.996027 0.228724 0 0 0 
0.175739 0.995008 0.258012 0 0 0 
0.312069 0.996035 0.809968 0 0 0 
0.840034 0.950618 0.062212 0 0 0 
0.435883 0.99763 0.241203 0 0 0 
0.830076 0.994105 0.204683 0 0 0 
0.48659 0.999535 0.603185 0 0 0 
0.380684 0.997945 0.724266 0 0 0 
0.522279 0.962451 0.071261 0 0 0 
0.0687911 0.957542 0.163392 0 0 0 
0.928768 0.935764 0.911651 0 0 0 
0.0615647 0.951267 0.70518 0 0 0 
0.238298 0.979163 0.901054 0 0 0 
0.69468 0.998875 0.47471 0 0 0 
0.833339 0.994558 0.236945 0 0 0 
0.481374 0.990668 0.122589 0 0 0 
0.70756 0.997781 0.662244 0 0 0 
0.608228 0.99599 0.15374 0 0 0 
0.0720948 0.955975 0.875004 0 0 0 
0.0606941 0.950276 0.719539 0 0 0 
0.254426 0.966686 0.0787951 0 0 0 
0.0551662 0.94617 0.412595 0 0 0 
0.31507 0.996946 0.254338 0 0 0 
0.698766 0.953074 0.0635394 0 0 0 
0.431895 0.998589 0.319088 0 0 0 
0.416478 0.999756 0.527907 0 0 0 
0.168729 0.996641 0.471268 0 0 0 
0.455018 0.999557 0.598596 0 0 0 
0.820363 0.982957 0.89372 0 0 0 
0.546905 0.952573 0.0613065 0 0 0 
0.259655 0.951094 0.0617365 0 0 0 
0.766618 0.995776 0.233196 0 0 0 
0.317785 0.998762 0.575971 0 0 0 
0.330119 0.998974 0.538207 0 0 0 
0.172577 0.933985 0.954553 0 0 0 
0.825556 0.995642 0.318203 0 0 0 
0.585057 0.997867 0.264244 0 0 0 
0.638082 0.992553 0.134726 0 0 0 
0.373578 0.999351 0.566025 0 0 0 
0.591455 0.962562 0.0717533 0 0 0 
0.239798 0.99768 0.550897 0 0 0 
0.496373 0.999497 0.380175 0 0 0 
0.278702 0.997937 0.368906 0 0 0 
0.731008 0.990776 0.87149 0 0 0 
0.446752 0.999311 0.384193 0 0 0 
0.941893 0.947181 0.759114 0 0 0 
0.30014 0.963802 0.0739314 0 0 0 
0.571178 0.975937 0.0917664 0 0 0 
0.368659 0.954634 0.0643618 0 0 0 
0.653279 0.998209 0.667676 0 0 0 
0.74651 0.997268 0.661147 0 0 0 
0.712562 0.996372 0.771817 0 0 0 
0.0739165 0.962738 0.162694 0 0 0 
0.793838 0.996213 0.686517 0 0 0 
0.817044 0.993944 0.83801 0 0 0 
0.105839 0.983407 0.221798 0 0 0 
0.190736 0.995902 0.693101 0 0 0 
0.355724 0.997836 0.298893 0 0 0 
0.790559 0.978161 0.901975 0 0 0 
0.0580673 0.949551 0.48543 0 0 0 
0.211028 0.997187 0.547267 0 0 0 
0.600543 0.998838 0.367006 0 0 0 
0.213949 0.958614 0.93048 0 0 0 
0.293786 0.998493 0.452238 0 0 0 
0.782687 0.997409 0.485556 0 0 0 
0.340576 0.998941 0.438984 0 0 0 
0.621118 0.999686 0.466674 0 0 0 
0.618179 0.996724 0.198236 0 0 0 
0.457647 0.995647 0.850615 0 0 0 
0.587399 0.996739 0.809711 0 0 0 
0.520953 0.999681 0.408428 0 0 0 
0.546957 0.996712 0.817284 0 0 0 
0.911437 0.973126 0.685981 0 0 0 
0.803945 0.995949 0.69058 0 0 0 
0.596445 0.998475 0.676149 0 0 0 
0.675786 0.979203 0.901605 0 0 0 
0.362351 0.998928 0.610081 0 0 0 
0.528119 0.927793 0.963491 0 0 0 
0.570176 0.99805 0.271019 0 0 0 
0.647296 0.997995 0.698802 0 0 0 
0.65462 0.997909 0.311289 0 0 0 
0.716293 0.997809 0.352945 0 0 0 
0.269096 0.939515 0.950104 0 0 0 
0.7641 0.997011 0.657911 0 0 0 
0.492229 0.997474 0.784396 0 0 0 
0.6838 0.9988 0.561537 0 0 0 
0.650806 0.998506 0.371689 0 0 0 
0.332693 0.986341 0.109994 0 0 0 
0.130295 0.987417 0.136776 0 0 0 
0.655665 0.995997 0.824233 0 0 0 
0.13614 0.99131 0.814338 0 0 0 
0.307922 0.998631 0.431781 0 0 0 
0.765899 0.94931 0.0604388 0 0 0 
0.200229 0.996936 0.402073 0 0 0 
0.908637 0.975122 0.632362 0 0 0 
0.953286 0.935668 0.225014 0 0 0 
0.782875 0.995373 0.774504 0 0 0 
0.451236 0.999205 0.631477 0 0 0 
0.443959 0.999288 0.380633 0 0 0 
0.101775 0.969846 0.106261 0 0 0 
0.892312 0.98461 0.255133 0 0 0 
0.332683 0.999019 0.540209 0 0 0 
0.906921 0.976762 0.431313 0 0 0 
0.842973 0.995539 0.348449 0 0 0 
0.0881276 0.973147 0.352364 0 0 0 
0.470555 0.993494 0.137711 0 0 0 
0.826364 0.996747 0.529899 0 0 0 
0.518165 0.999904 0.445546 0 0 0 
0.386071 0.99296 0.86398 0 0 0 
0.67204 0.996986 0.761502 0 0 0 
0.447027 0.99175 0.128755 0 0 0 
0.461044 0.999927 0.532194 0 0 0 
0.16458 0.996417 0.427826 0 0 0 
0.874402 0.991056 0.614391 0 0 0 
0.791438 0.996734 0.634023 0 0 0 
0.855989 0.993016 0.242431 0 0 0 
0.840902 0.995607 0.649659 0 0 0 
0.940091 0.950485 0.622052 0 0 0 
0.206411 0.995964 0.285599 0 0 0 
0.208728 0.979215 0.900345 0 0 0 
0.141072 0.957771 0.0716743 0 0 0 
0.743863 0.997728 0.383289 0 0 0 
0.951167 0.939905 0.402061 0 0 0 
0.433761 0.999826 0.489333 0 0 0 
0.287956 0.998294 0.405862 0 0 0 
0.954254 0.937311 0.460541 0 0 0 
0.61793 0.999706 0.478305 0 0 0 
0.597713 0.999142 0.604385 0 0 0 
0.342806 0.997492 0.276846 0 0 0 
0.880921 0.989201 0.679807 0 0 0 
0.842118 0.995036 0.702944 0 0 0 
0.495812 0.998677 0.692329 0 0 0 
0.519461 0.931481 0.95977 0 0 0 
0.502985 0.993504 0.137392 0 0 0 
0.398463 0.997081 0.782796 0 0 0 
0.352254 0.974503 0.909716 0 0 0 
0.22371 0.995282 0.21835 0 0 0 
0.328748 0.986328 0.890193 0 0 0 
0.769557 0.995771 0.762488 0 0 0 
0.344816 0.997245 0.256545 0 0 0 
0.351715 0.942142 0.948185 0 0 0 
0.650617 0.99763 0.726734 0 0 0 
0.136427 0.993383 0.533819 0 0 0 
0.262589 0.997746 0.374909 0 0 0 
0.943593 0.945274 0.227501 0 0 0 
0.0534125 0.942801 0.769575 0 0 0 
0.504535 0.999912 0.448187 0 0 0 
0.457962 0.999031 0.346295 0 0 0 
0.424988 0.988311 0.887868 0 0 0 
0.291628 0.998191 0.375362 0 0 0 
0.915634 0.971066 0.602048 0 0 0 
0.0471951 0.936697 0.723552 0 0 0 
0.235123 0.996905 0.66909 0 0 0 
0.554533 0.990157 0.11902 0 0 0 
0.819666 0.995096 0.254899 0 0 0 
0.449855 0.999686 0.582877 0 0 0 
0.0637739 0.952734 0.183017 0 0 0 
0.898215 0.980833 0.761964 0 0 0 
0.594739 0.98973 0.882504 0 0 0 
0.331584 0.993901 0.857232 0 0 0 
0.899214 0.979339 0.150135 0 0 0 
0.181567 0.996027 0.661582 0 0 0 
0.822019 0.996654 0.581941 0 0 0 
0.16849 0.994714 0.769686 0 0 0 
0.946278 0.942361 0.176978 0 0 0 
0.61644 0.998106 0.307367 0 0 0 
0.53962 0.997894 0.748283 0 0 0 
0.894803 0.984265 0.559431 0 0 0 
0.536437 0.997967 0.252568 0 0 0 
0.378203 0.970915 0.915775 0 0 0 
0.103494 0.972638 0.109538 0 0 0 
0.418161 0.999746 0.517493 0 0 0 
0.459144 0.999915 0.534916 0 0 0 
0.178681 0.995109 0.744167 0 0 0 
0.826228 0.995617 0.67744 0 0 0 
0.929168 0.961437 0.358228 0 0 0 
0.239599 0.995874 0.767839 0 0 0 
0.211162 0.997122 0.564121 0 0 0 
0.408769 0.997107 0.783941 0 0 0 
0.900198 0.979127 0.79884 0 0 0 
0.667017 0.998611 0.393866 0 0 0 
0.0535785 0.942819 0.797741 0 0 0 
0.368568 0.999195 0.586115 0 0 0 
0.717899 0.952986 0.936586 0 0 0 
0.61055 0.997907 0.283209 0 0 0 
0.832785 0.99559 0.328729 0 0 0 
0.280627 0.99835 0.492249 0 0 0 
0.441977 0.99966 0.433696 0 0 0 
0.91263 0.973559 0.47985 0 0 0 
0.378766 0.998123 0.310097 0 0 0 
0.29977 0.998083 0.356923 0 0 0 
0.595214 0.998108 0.711249 0 0 0 
0.30292 0.996176 0.213933 0 0 0 
0.401766 0.999595 0.487091 0 0 0 
0.247711 0.944487 0.944954 0 0 0 
0.90913 0.973363 0.181567 0 0 0 
0.0707486 0.960081 0.780009 0 0 0 
0.111923 0.979152 0.886072 0 0 0 
0.191143 0.99374 0.152257 0 0 0 
0.301111 0.997748 0.687549 0 0 0 
0.749144 0.996865 0.298486 0 0 0 
0.942713 0.945302 0.829542 0 0 0 
0.48928 0.999696 0.412902 0 0 0 
0.544157 0.994903 0.854663 0 0 0 
0.924154 0.965412 0.675291 0 0 0 
0.474037 0.996727 0.818459 0 0 0 
0.241068 0.997635 0.403875 0 0 0 
0.795801 0.997187 0.506687 0 0 0 
0.778376 0.956903 0.931877 0 0 0 
0.339333 0.982901 0.104482 0 0 0 
0.749723 0.997887 0.418552 0 0 0 
0.169406 0.996387 0.555509 0 0 0 
0.232375 0.970007 0.084423 0 0 0 
0.136035 0.991929 0.75735 0 0 0 
0.487073 0.98663 0.109313 0 0 0 
0.37304 0.997791 0.285682 0 0 0 
0.499415 0.956292 0.0651377 0 0 0 
0.936304 0.955414 0.502612 0 0 0 
0.850315 0.978599 0.899693 0 0 0 
0.720681 0.99837 0.448371 0 0 0 
0.145697 0.994684 0.598111 0 0 0 
0.538538 0.958717 0.932483 0 0 0 
0.922219 0.96266 0.859715 0 0 0 
0.81399 0.996297 0.36605 0 0 0 
0.40006 0.996221 0.832015 0 0 0 
0.68069 0.991317 0.869696 0 0 0 
0.660267 0.998913 0.586512 0 0 0 
0.133667 0.991629 0.277221 0 0 0 
0.44209 0.997102 0.794417 0 0 0 
0.212654 0.997089 0.392374 0 0 0 
0.385321 0.997152 0.225918 0 0 0 
0.132568 0.991466 0.27591 0 0 0 
0.795255 0.954362 0.0656772 0 0 0 
0.274161 0.998287 0.493242 0 0 0 
0.509198 0.990286 0.120129 0 0 0 
0.57498 0.997879 0.25814 0 0 0 
0.853772 0.992548 0.184736 0 0 0 
0.867518 0.956546 0.927828 0 0 0 
0.947413 0.941792 0.258166 0 0 0 
0.705361 0.998453 0.574916 0 0 0 
0.583069 0.999238 0.598936 0 0 0 
0.498756 0.996312 0.837872 0 0 0 
0.765383 0.995864 0.759104 0 0 0 
0.224985 0.996239 0.27989 0 0 0 
0.684374 0.989564 0.880016 0 0 0 
0.904115 0.949358 0.918811 0 0 0 
0.539897 0.999965 0.478328 0 0 0 
0.290915 0.998465 0.500893 0 0 0 
0.811355 0.99603 0.66992 0 0 0 
0.827386 0.995366 0.700023 0 0 0 
0.92129 0.963138 0.132808 0 0 0 
0.0566382 0.945948 0.777981 0 0 0 
0.537336 0.94181 0.949433 0 0 0 
0.587238 0.997879 0.733047 0 0 0 
0.814528 0.995293 0.26327 0 0 0 
0.160396 0.957852 0.930473 0 0 0 
0.639946 0.999082 0.583332 0 0 0 
0.0755746 0.965103 0.283385 0 0 0 
0.323225 0.998629 0.613113 0 0 0 
0.212251 0.987453 0.886935 0 0 0 
0.300308 0.998558 0.433414 0 0 0 
0.585452 0.948709 0.0577548 0 0 0 
0.956265 0.93199 0.828158 0 0 0 
0.676767 0.995756 0.824797 0 0 0 
0.361161 0.998802 0.38142 0 0 0 
0.229263 0.997522 0.554039 0 0 0 
0.190343 0.996566 0.596956 0 0 0 
0.448204 0.999515 0.408338 0 0 0 
0.643834 0.998752 0.616235 0 0 0 
0.276974 0.998022 0.616432 0 0 0 
0.21602 0.936061 0.953096 0 0 0 
0.370453 0.998523 0.665238 0 0 0 
0.582676 0.998669 0.339631 0 0 0 
0.266431 0.996276 0.243411 0 0 0 
0.950742 0.940891 0.473777 0 0 0 
0.792157 0.997238 0.502924 0 0 0 
0.90875 0.973685 0.158013 0 0 0 
0.102371 0.981306 0.78258 0 0 0 
0.27639 0.984683 0.892666 0 0 0 
0.363388 0.991612 0.130616 0 0 0 
0.929943 0.960848 0.586407 0 0 0 
0.451973 0.997678 0.766782 0 0 0 
0.821757 0.996541 0.418248 0 0 0 
0.622678 0.999681 0.494017 0 0 0 
0.798047 0.996923 0.593808 0 0 0 
0.6241 0.997841 0.286691 0 0 0 
0.46907 0.99997 0.478391 0 0 0 
