ply
format ascii 1.0
comment Aron generated
element vertex 840
property float x
property float y
property float z
property float nx
property float ny
property float nz
end_header
0.412646 0.658752 0.136087 -0.0140785 0.99947 -0.0293641
0.449459 0.663124 0.0655097 0.00356263 0.999975 0.00611696
0.363011 0.660977 0.13371 -0.00142189 0.999915 0.0129448
0.388231 0.66079 0.0363162 -0.00548205 0.999873 -0.0149623
0.408994 0.661886 0.0144102 -0.00295399 0.999968 -0.00737404
0.358518 0.662211 0.137969 0.0021535 0.999911 0.0131791
0.376714 0.660263 0.0493526 0.000276811 0.999861 -0.0166574
0.543136 0.661721 0.0464295 -0.00478291 0.998107 -0.0613101
0.524475 0.6617 0.126841 -0.00750432 0.999963 -0.00411639
0.505429 0.661601 0.157779 0.0194852 0.999686 -0.0157233
0.58401 0.662462 0.111116 0.0147642 0.999686 0.0202629
0.559004 0.661302 0.0874719 -0.0256478 0.99958 0.0134594
0.510729 0.66083 0.105756 0.0196595 0.999769 0.00872499
0.564949 0.660221 0.129749 0.0164415 0.99986 -0.00300708
0.599225 0.663487 0.0404525 -0.00530284 0.999891 -0.0137578
0.638425 0.663403 0.019106 0.246273 0.968873 -0.0252031
0.615844 0.661887 0.0441757 0.0234675 0.999713 0.00487841
0.638353 0.660633 0.0509742 0.240343 0.970031 0.0356994
0.629136 0.664961 0.0107724 0.0604443 0.997481 -0.0371207
0.614819 0.661422 0.0654679 0.0209383 0.999558 0.0211142
0.630573 0.65998 0.0755345 0.146333 0.988676 0.0332585
0.598612 0.660032 0.0873592 0.0340322 0.999113 0.0247966
0.592876 0.663325 0.11074 0.0088012 0.999869 0.0135833
0.616622 0.662241 0.135585 0.0241085 0.99964 -0.0117428
0.36906 0.661709 0.209636 -0.0709634 0.968317 0.239429
0.417 0.662589 0.166727 0.0232478 0.999687 -0.00925655
0.34395 0.661669 0.175345 0.00690725 0.999637 -0.0260232
0.46391 0.660826 0.195042 -0.0263787 0.999554 0.0139902
0.471818 0.663241 0.207821 -0.0364395 0.995788 0.0841396
0.437638 0.661405 0.20237 0.0156344 0.997267 0.0722076
0.49423 0.662094 0.196666 -0.011202 0.999497 0.0296621
0.427853 0.662669 0.168873 0.0446455 0.998906 0.013907
0.444779 0.660988 0.187864 0.00675805 0.999956 0.00645982
0.479297 0.660094 0.186353 -0.0171034 0.999779 0.0122538
0.577464 0.661734 0.211304 -0.0363053 0.966573 0.253809
0.573559 0.663415 0.167465 0.00138619 0.999928 -0.0119482
0.504381 0.662331 0.212827 0.00588361 0.966383 0.257039
0.518783 0.661665 0.211524 0.0425889 0.970197 0.238547
0.603619 0.661972 0.177908 0.0247491 0.999569 -0.0157833
0.64198 0.663252 0.193267 0.23218 0.972651 -0.00648679
0.634526 0.66234 0.182275 0.161052 0.986893 0.0101847
0.0232818 0.663201 0.0299557 -0.299861 0.953654 -0.0250615
0.0299092 0.662892 0.0198284 -0.230039 0.972338 0.0405
0.0365264 0.661403 0.0510325 -0.0721247 0.997143 -0.0224669
0.0205452 0.662185 0.0573201 -0.292757 0.95534 -0.0402401
0.0585094 0.663617 0.020823 0.0362817 0.998582 -0.0389541
0.0783385 0.659655 0.00152025 0.0320201 0.998081 -0.0530071
0.066848 0.662025 0.0269063 0.0374244 0.998438 -0.0414754
0.046765 0.666448 0.0454976 0.021449 0.999542 0.0213516
0.0669536 0.66032 0.0733594 -0.0126105 0.999253 0.0365245
0.0772709 0.662663 0.0460425 0.0176812 0.999844 -0.000571126
0.0822103 0.663253 0.0536487 -0.00580709 0.999974 0.00436513
0.0432465 0.664325 0.0624607 0.033329 0.997756 0.0580721
0.0495356 0.660966 0.0394902 0.0291042 0.999576 0.000719557
0.0383884 0.662745 0.0917513 -0.0106645 0.999849 0.0137012
0.0342211 0.661306 0.104353 -0.103037 0.99466 0.00593127
0.0337622 0.658289 0.0878501 -0.304974 0.951262 0.0457405
0.0288499 0.660604 0.121049 -0.0612112 0.997815 -0.0248656
0.0322047 0.661995 0.0969967 -0.272356 0.962186 -0.00453804
0.0372664 0.662097 0.135761 0.00509116 0.999929 -0.0107578
0.0439193 0.662184 0.114865 0.00891487 0.999942 -0.00597455
0.0790569 0.662613 0.12166 -0.00197871 0.999997 -0.00150621
0.0644006 0.664272 0.115915 -0.0294145 0.999514 0.0103051
0.0657408 0.662272 0.147953 -0.0456046 0.998836 -0.0157422
0.0592126 0.659339 0.132323 -0.0387671 0.999207 -0.00912386
0.0524519 0.662666 0.161518 -0.04971 0.998749 -0.00539528
0.0478623 0.662903 0.130373 0.0281043 0.999586 -0.00624879
0.0428313 0.660872 0.14677 0.00871084 0.999962 -0.000883459
0.0443037 0.664782 0.143006 0.0126225 0.999914 -0.00343323
0.0518852 0.659271 0.161253 -0.0517635 0.998567 -0.0136224
0.166199 0.663978 0.025858 -0.011053 0.999938 0.00163493
0.0883723 0.662962 0.0651822 -0.0261393 0.999621 0.00864999
0.101486 0.66031 0.031143 -0.0105316 0.999445 -0.0316119
0.105745 0.660719 0.0567812 0.00813792 0.999929 -0.00871695
0.110117 0.662131 0.056115 0.00789099 0.999967 0.00178225
0.163569 0.660856 0.0352183 -0.00678137 0.999937 0.00895239
0.120034 0.661143 0.035906 -0.00432184 0.999682 -0.0248549
0.139603 0.658736 0.0170792 -0.0157373 0.999178 -0.0373712
0.128393 0.659237 0.0607027 -0.00606969 0.999597 0.0277303
0.127723 0.664586 0.0393444 0.00989903 0.99987 -0.01271
0.1289 0.661314 0.0111234 -0.0153496 0.998863 -0.0451437
0.143822 0.661152 0.0734065 -0.000394051 0.999817 -0.0191182
0.0898658 0.661826 0.0787015 -0.0167388 0.99984 0.00627965
0.125923 0.661999 0.0635062 -0.00235979 0.999867 0.0161646
0.149034 0.661318 0.0915555 0.00538143 0.999986 -3.6096e-05
0.1204 0.660961 0.128186 0.000198871 0.999999 0.00133607
0.129535 0.664976 0.0969186 -0.0158929 0.99984 0.00818445
0.133884 0.663142 0.0826306 -0.0164285 0.999854 -0.00468135
0.145312 0.659976 0.0980236 0.0063953 0.999682 0.0243867
0.141602 0.662228 0.0944987 -0.0105644 0.999907 0.0086631
0.151398 0.659797 0.114911 -0.010331 0.999875 0.0120087
0.150405 0.662856 0.14629 -0.0163826 0.999833 -0.0081283
0.113013 0.663305 0.0820687 0.00516638 0.99998 0.00372248
0.0878832 0.661449 0.111801 0.0173064 0.999826 0.00702204
0.165847 0.663097 0.131174 -0.0202695 0.999794 0.0014095
0.19262 0.66421 0.0674814 -0.0167545 0.999589 -0.0232495
0.191896 0.661778 0.0406074 0.0137286 0.999903 0.00229858
0.242428 0.66129 0.037928 -0.0101064 0.999763 0.0192829
0.213968 0.661394 0.0678898 0.0324077 0.998734 -0.0384806
0.244656 0.662236 0.0772481 0.00570434 0.999878 -0.0145126
0.183114 0.661182 0.0640667 -0.0172099 0.99961 -0.0219894
0.176188 0.660054 0.0791437 -0.0237278 0.999704 0.00534728
0.245266 0.662171 0.0554773 0.00229249 0.999981 -0.00569987
0.224167 0.662307 0.0319843 -0.00552121 0.999979 0.00346942
0.250529 0.661686 0.110462 0.0214266 0.99971 -0.0109707
0.24443 0.662964 0.140226 0.0243643 0.999657 0.00963994
0.234785 0.661987 0.0843434 0.0191846 0.999653 -0.0180784
0.182197 0.660276 0.0920534 -0.0296628 0.99956 -2.90462e-05
0.22216 0.662764 0.1192 0.0252733 0.999661 -0.00627743
0.237387 0.66197 0.145645 0.0261681 0.999539 0.015428
0.210624 0.661562 0.097079 0.0139602 0.999867 -0.00837808
0.219545 0.662754 0.148319 0.0150981 0.999543 0.0261736
0.203111 0.665091 0.103388 -0.00477046 0.999986 -0.00245911
0.322557 0.663161 0.0672899 0.0106183 0.999932 -0.00482561
0.298359 0.663125 0.063242 -0.018104 0.99982 0.00573036
0.310511 0.661892 0.0181173 0.00889106 0.999935 0.00709115
0.279859 0.662932 0.0663916 -0.0426626 0.99903 0.0109355
0.297629 0.664387 0.0480759 -0.00759726 0.999971 -0.000704308
0.262688 0.665282 0.0192788 -0.0130893 0.999603 0.0249521
0.31954 0.658679 0.0483931 0.0179182 0.999824 -0.00547765
0.282069 0.661321 0.0759208 -0.0323663 0.999182 0.0242458
0.268664 0.663089 0.00728321 -0.0128744 0.999703 0.0206855
0.262147 0.663748 0.0341148 -0.0117646 0.999465 0.0305039
0.321194 0.664307 0.0171433 0.00242653 0.999961 0.00848287
0.272778 0.661587 0.0527085 -0.0393468 0.998583 0.0358414
0.27658 0.65958 0.076569 -0.0203744 0.999738 0.0104433
0.291938 0.66216 0.0684362 -0.0350258 0.999333 0.0103647
0.316476 0.664219 0.122187 -0.00977926 0.999906 -0.00959279
0.315367 0.662171 0.162497 -0.00311405 0.999981 -0.00540603
0.291659 0.662373 0.142016 -0.00394586 0.999982 0.00446054
0.311206 0.661935 0.127651 -0.0131251 0.99989 -0.00684602
0.263708 0.661711 0.0811847 0.00306585 0.999973 -0.00664987
0.316248 0.662316 0.128123 -0.00940419 0.999934 -0.00658343
0.302793 0.660482 0.143529 -0.00413724 0.999926 0.011401
0.28288 0.662525 0.121072 -0.00759113 0.99972 -0.0223915
0.325516 0.66175 0.116007 0.000159399 0.999881 -0.0153995
0.300061 0.65958 0.108508 -0.0170485 0.999762 -0.0136458
0.0316809 0.660712 0.179025 -0.196963 0.979835 -0.0336109
0.0306772 0.664464 0.198386 -0.0506862 0.997794 -0.0428779
0.0228192 0.662239 0.202561 -0.0840674 0.994361 -0.0646442
0.0389618 0.662387 0.181396 -0.031212 0.998626 -0.0420955
0.0276328 0.659357 0.190713 -0.182642 0.975289 -0.12431
0.0184565 0.661196 0.213934 -0.0555862 0.985337 0.161309
0.0768334 0.661962 0.174881 -0.0244249 0.999491 0.0205219
0.0442099 0.662901 0.201129 0.019037 0.999503 0.0251101
0.0552989 0.658198 0.238558 -0.159704 0.979879 0.119713
0.049569 0.659199 0.208245 0.0286125 0.99793 0.0575905
0.0576 0.661511 0.207881 0.00923224 0.998207 0.0591351
0.076806 0.659288 0.245758 -0.0451388 0.998907 -0.0121154
0.0648364 0.660129 0.222923 -0.0155137 0.99482 0.100462
0.0786652 0.663079 0.214576 -0.0460617 0.995962 0.077064
0.0501378 0.660724 0.261272 -0.218184 0.97584 0.0115198
0.0711745 0.658622 0.257378 -0.109205 0.994017 -0.00214033
0.079255 0.660102 0.273249 -0.0468602 0.989369 0.137672
0.0756285 0.659137 0.268847 -0.0487692 0.995036 0.0867425
0.0490287 0.654218 0.257507 -0.291957 0.95562 0.0393972
0.153162 0.662181 0.210651 -0.015491 0.996222 0.0854506
0.140001 0.661272 0.219669 0.0207663 0.991471 0.12866
0.1004 0.663045 0.172754 0.0402193 0.999113 0.0124956
0.0911572 0.6629 0.217899 -0.0399882 0.996291 0.0761902
0.11616 0.661027 0.183627 0.0291737 0.999136 -0.0295859
0.131091 0.661292 0.165529 -0.00535708 0.999983 0.0021541
0.0868148 0.663172 0.182134 0.0248192 0.999465 0.0213095
0.14004 0.656619 0.236195 0.0655251 0.991942 0.108437
0.124186 0.660331 0.223451 0.0451349 0.995865 0.0788463
0.110994 0.666367 0.217092 0.014462 0.999493 0.0283543
0.10333 0.659001 0.237516 -0.011888 0.998521 0.0530514
0.123908 0.663182 0.208095 0.0197508 0.999799 -0.00344901
0.108851 0.657787 0.274479 -0.037555 0.997771 0.0551619
0.0866078 0.660002 0.265033 -0.00474358 0.997637 0.0685407
0.110112 0.660166 0.284771 -0.120342 0.992707 0.00707991
0.108555 0.657997 0.269017 -0.00832258 0.998594 0.0523457
0.12076 0.660808 0.300767 0.0298416 0.980943 0.191993
0.136524 0.660526 0.277251 0.0840157 0.991224 0.102064
0.126702 0.662264 0.277103 -0.0225043 0.999687 -0.0108845
0.132393 0.659979 0.256952 0.0392902 0.999145 -0.0128556
0.158794 0.66013 0.26926 0.14433 0.987366 0.0654045
0.181632 0.664025 0.182931 -0.0343378 0.999118 -0.0241793
0.183683 0.656094 0.23932 0.0797734 0.988088 0.131599
0.208816 0.659437 0.229941 0.0702105 0.983497 0.166746
0.218395 0.661336 0.179913 0.0539633 0.997945 0.0345557
0.175532 0.661714 0.213799 0.0149382 0.992556 0.12087
0.17955 0.661375 0.178493 -0.0345186 0.999075 -0.0256523
0.196707 0.657434 0.23466 0.0543964 0.983079 0.17492
0.229157 0.663104 0.197593 0.0233952 0.997837 0.0614382
0.180284 0.663597 0.204942 0.00846836 0.998048 0.0618818
0.198061 0.661923 0.210506 0.0568604 0.992768 0.105729
0.198762 0.664524 0.170504 0.0121015 0.999907 -0.00623053
0.249756 0.661826 0.186923 -0.0541029 0.998535 -0.000674066
0.19629 0.663012 0.208439 0.0517896 0.99261 0.109743
0.186735 0.658885 0.230622 0.0579071 0.984201 0.167319
0.221938 0.660474 0.198443 0.0660661 0.994784 0.0777216
0.174559 0.657649 0.252824 0.180009 0.953022 0.243609
0.174375 0.656672 0.24811 0.12441 0.979484 0.158533
0.294853 0.661802 0.170873 0.0197655 0.999604 -0.0200528
0.298634 0.662922 0.203099 -0.0236308 0.993758 0.109023
0.320619 0.66132 0.175111 -0.00204729 0.99969 -0.0248084
0.296627 0.661434 0.173882 0.0159908 0.999398 -0.0307831
0.265087 0.661139 0.214176 -0.0556851 0.95176 0.301747
0.260451 0.664984 0.186377 -0.0437043 0.998905 -0.016713
0.27079 0.662875 0.209275 -0.0505928 0.976416 0.209887
0.318852 0.662612 0.21513 0.00657386 0.983036 0.183293
0.330163 0.663619 0.171441 0.0147357 0.998975 -0.0427957
0.273073 0.662755 0.18629 -0.00278132 0.999991 -0.0033455
0.391455 0.662061 0.0549603 -0.00690987 0.99991 -0.0115399
0.40326 0.663097 0.0312488 -0.00553394 0.999905 -0.0126532
0.374971 0.663666 0.0774412 0.0043754 0.999987 0.00249115
0.338266 0.661581 0.0324732 0.0105234 0.999944 -0.00122562
0.342808 0.661803 0.0446804 0.0073873 0.999928 -0.00945252
0.350935 0.66348 0.0326413 0.00494542 0.999974 -0.00520625
0.357985 0.657028 0.153258 -0.00650232 0.999842 -0.0165644
0.358752 0.662457 0.132729 0.00850316 0.999803 0.0179439
0.374849 0.663599 0.158514 -0.0347102 0.999072 -0.0254894
0.368028 0.662675 0.130539 0.00499711 0.999937 0.0100634
0.393327 0.661413 0.0874976 0.00357036 0.999902 0.0135603
0.382482 0.660019 0.151291 -0.0148236 0.999534 -0.0266864
0.407197 0.662646 0.0946611 0.0127859 0.999624 0.0242591
0.445967 0.662423 0.0723708 0.00598938 0.999961 0.00652082
0.429848 0.663368 0.0176679 0.00479105 0.999956 -0.00812683
0.471863 0.662357 0.00352661 0.00277222 0.999983 0.00520505
0.493692 0.662251 0.0514082 0.000416124 0.999904 -0.0138187
0.454844 0.661853 0.0541326 0.00154319 0.999995 0.00276611
0.463888 0.65946 0.128072 -0.012183 0.999898 0.00740366
0.481807 0.661714 0.160326 -0.0153096 0.999877 -0.0034578
0.44717 0.661276 0.0988042 -3.40801e-05 0.999998 0.00201132
0.492916 0.66377 0.112603 0.00585477 0.999974 0.00419967
0.431275 0.66208 0.119864 -0.0029937 0.999961 0.00832707
0.48697 0.661123 0.130367 0.00146668 0.999979 0.00627574
0.432108 0.662067 0.128492 -0.01088 0.999941 -0.000504358
0.431821 0.66156 0.163457 0.0384266 0.999184 -0.0124363
0.418665 0.661315 0.120768 -0.00525316 0.999848 0.0166455
0.4477 0.662353 0.128838 -0.0105889 0.999944 -0.000246427
0.490841 0.664357 0.130374 0.00831733 0.999949 0.00568537
0.569988 0.660636 0.0540945 -0.00584451 0.999464 -0.032217
0.513099 0.662563 0.0669782 -0.00817384 0.999961 -0.00344702
0.562709 0.663139 0.0625638 -0.00496418 0.999425 -0.0335305
0.50743 0.660793 0.0481146 0.00234031 0.999667 -0.0257129
0.549957 0.65959 0.0320062 0.00115081 0.998547 -0.0538824
0.524043 0.663589 0.0631885 -0.00436604 0.99994 -0.0100315
0.521777 0.662969 0.0500648 0.00194997 0.999482 -0.0321235
0.582942 0.662318 0.0705934 0.0182392 0.999776 -0.0106956
0.523485 0.662196 0.06106 -0.00261587 0.999759 -0.0218193
0.552549 0.662278 0.0504535 0.00209291 0.998513 -0.0544673
0.563963 0.662874 0.12622 0.0148525 0.999881 -0.0042614
0.509146 0.661996 0.134227 0.0179215 0.999822 0.00585128
0.542648 0.660578 0.108143 -0.0137013 0.999904 -0.00185777
0.55261 0.664199 0.133861 0.00701673 0.99995 -0.00719548
0.539941 0.66251 0.115084 -0.0083999 0.99991 -0.0104623
0.584141 0.662381 0.128821 0.00570351 0.999982 -0.00187744
0.531215 0.662317 0.108533 -0.00132235 0.999951 -0.00985675
0.52919 0.66078 0.148972 -0.0318531 0.999452 -0.00905885
0.571939 0.660002 0.145917 0.0113061 0.999892 -0.00942101
0.521028 0.661152 0.150688 -0.00771644 0.999906 -0.0113181
0.567177 0.661417 0.105236 -0.00224558 0.999828 0.0184287
0.505843 0.66234 0.100497 0.0200064 0.99976 0.00895594
0.567739 0.664956 0.0837965 -0.00779916 0.999865 0.0144983
0.511051 0.660376 0.132884 0.0145836 0.999877 0.00576715
0.603133 0.66225 0.0192805 -0.0152711 0.999704 -0.0189617
0.609194 0.661917 0.0146354 -0.00995797 0.999888 -0.011179
0.625731 0.663428 0.0309223 0.022624 0.999316 0.0292558
0.603611 0.659428 0.00340471 -0.0249338 0.999501 -0.0193943
0.600617 0.661068 0.040589 0.000140984 0.999945 -0.0104622
0.629339 0.66209 0.0139217 0.0754472 0.99702 -0.0160983
0.628013 0.66153 0.0316367 0.0311698 0.998936 0.0340031
0.641465 0.662011 0.0349206 0.216806 0.968254 0.124414
0.632544 0.660691 0.0300686 0.0720993 0.997164 0.0215919
0.632934 0.66091 0.0376109 0.0736058 0.995613 0.0577627
0.614122 0.661106 0.100518 0.00272727 0.999969 -0.007378
0.607364 0.660977 0.0909069 0.0226559 0.999503 0.0219333
0.589443 0.658829 0.119467 -0.00472961 0.999982 0.0036692
0.61425 0.661164 0.08304 0.0275672 0.999504 0.0151998
0.598939 0.663173 0.080838 0.0264604 0.999601 0.00986878
0.604828 0.66277 0.0937869 0.0239939 0.999618 0.0137539
0.590165 0.662312 0.0844952 0.0282454 0.999566 0.00832432
0.589665 0.661853 0.123495 0.000114717 0.999984 0.00560004
0.622001 0.659087 0.143429 0.080823 0.996676 -0.0102321
0.6115 0.662766 0.134037 -0.00309727 0.99996 0.00839187
0.599975 0.663286 0.154116 0.00395137 0.999877 -0.0151733
0.636284 0.662742 0.0922383 0.1163 0.992099 -0.0470492
0.640189 0.662024 0.133373 0.268775 0.95979 -0.0810098
0.626965 0.664169 0.142401 0.11854 0.992806 -0.0168881
0.387119 0.661833 0.206953 0.0143498 0.996294 0.0848059
0.347405 0.66086 0.164797 0.00613698 0.999197 -0.0395822
0.370265 0.66329 0.17872 -0.0203662 0.999309 -0.0310764
0.411207 0.665133 0.165288 -0.000314712 0.999753 -0.0222375
0.41051 0.659736 0.185823 0.0160582 0.99951 0.0268594
0.407674 0.663088 0.164935 -0.00828184 0.999606 -0.0268369
0.411634 0.663237 0.19441 0.0170402 0.999594 0.0228442
0.410692 0.663724 0.173861 0.0050586 0.999938 0.00987234
0.394214 0.662294 0.177013 -0.0140575 0.999874 0.00741716
0.395704 0.663557 0.213756 0.0596227 0.960895 0.270417
0.412773 0.663391 0.181161 0.0191366 0.999574 0.0220268
0.36669 0.663637 0.182929 -0.0080839 0.999891 -0.0123476
0.468585 0.662339 0.199737 -0.0220186 0.999184 0.0338701
0.467147 0.662066 0.191892 -0.0125358 0.999921 -0.000862054
0.463432 0.661353 0.171876 -0.0194364 0.999751 0.0109274
0.496599 0.662235 0.192744 -0.00767952 0.999826 0.0170063
0.471113 0.663227 0.182973 -0.0254978 0.999569 0.0145825
0.444431 0.661521 0.168048 0.0309799 0.999456 -0.0113245
0.470484 0.660096 0.188522 -0.0210645 0.999746 0.00804891
0.483319 0.660731 0.216757 0.0004938 0.955106 0.296264
0.484469 0.661843 0.191203 -0.0223576 0.999403 0.0263415
0.427195 0.661449 0.196782 0.0397593 0.998974 0.0216857
0.425162 0.662998 0.180338 0.0376874 0.999034 0.0226058
0.527055 0.662414 0.167881 -0.0091452 0.99979 -0.0183509
0.570753 0.662031 0.18696 -0.0113346 0.997491 0.0698826
0.558651 0.662823 0.191268 -0.00285493 0.997167 0.0751682
0.521778 0.663395 0.179919 -0.00596454 0.999982 -0.000928667
0.514935 0.661573 0.174457 0.000882586 0.999971 -0.00753378
0.502507 0.661553 0.216048 0.0140874 0.954195 0.298854
0.50159 0.662362 0.16855 0.00712854 0.999942 -0.00811692
0.516948 0.661044 0.207663 0.0298324 0.980047 0.196517
0.531626 0.660745 0.203148 0.0207503 0.987013 0.159296
0.538524 0.663493 0.201143 -0.0158879 0.988895 0.147767
0.545224 0.663551 0.178184 -0.00880764 0.999928 -0.00817692
0.614291 0.663907 0.205712 0.0152473 0.995414 0.0944425
0.585615 0.662438 0.203164 -0.0349699 0.986369 0.16079
0.604512 0.662279 0.206774 0.0154587 0.978255 0.206831
0.633143 0.661615 0.166268 0.119523 0.991916 -0.0426167
0.632381 0.661387 0.193933 0.138726 0.989874 0.0300795
0.640334 0.659732 0.183408 0.308298 0.950314 0.0430751
0.636661 0.660697 0.188739 0.246522 0.96779 0.051075
0.629156 0.662615 0.208525 0.0939904 0.985414 0.141864
0.648223 0.66375 0.212382 0.20877 0.967783 0.140754
0.655816 0.479831 0.0318985 0.994778 0.0165187 0.100716
0.657173 0.488416 0.0343119 0.997418 0.0344889 0.0629973
0.658267 0.460752 0.067854 0.989922 -0.139839 -0.0223327
0.659175 0.46338 0.0533955 0.999617 0.0208303 -0.0182356
0.658226 0.491725 0.0238124 0.996011 0.0402893 0.0796159
0.656945 0.469169 0.0262455 0.996778 0.0103985 0.0795299
0.653392 0.458941 0.143181 0.985643 -0.158234 -0.0589068
0.655286 0.456402 0.110906 0.994883 -0.0800878 0.0615944
0.65986 0.477852 0.136892 0.998053 0.0301808 -0.0545785
0.662551 0.484388 0.0849271 0.999317 0.0222951 0.0294853
0.658945 0.453042 0.115256 0.999662 -0.0249332 0.00735033
0.659133 0.466531 0.135165 0.998771 -0.0255594 -0.0424761
0.659646 0.477202 0.161015 0.998698 0.0509617 -0.00241016
0.662746 0.453941 0.148657 0.979836 -0.165179 -0.112413
0.65716 0.467251 0.0985091 0.99899 -0.0114645 0.0434386
0.65714 0.5796 0.0349971 0.993995 0.0415353 0.101238
0.657742 0.572849 0.0225809 0.998726 -0.0480806 -0.0153351
0.657001 0.50237 0.0332893 0.999378 0.0326108 0.0133983
0.65427 0.568777 0.0460539 0.988625 0.0726723 0.131676
0.661083 0.530222 0.0779331 0.999676 0.00684921 0.0245118
0.656622 0.561374 0.00789187 0.986014 -0.0812945 -0.14549
0.661839 0.569422 0.0276099 0.998943 -0.0434298 0.0150779
0.659323 0.539512 0.0459546 0.99945 0.0253953 -0.0213434
0.659653 0.577211 0.0208241 0.999699 -0.00648727 -0.0236752
0.660131 0.515091 0.0674167 0.998729 -0.0347251 -0.0365455
0.6607 0.564053 0.0553469 0.996334 0.054603 0.0658614
0.660049 0.562348 0.0834137 0.996428 -0.0172718 -0.0826595
0.657153 0.540772 0.120649 0.990829 -0.0931776 0.0978529
0.659958 0.517548 0.128496 0.99154 0.0799589 -0.102253
0.660214 0.569095 0.0882281 0.998479 0.0258111 -0.048712
0.660661 0.533695 0.120748 0.993359 -0.0784933 0.0841277
0.664358 0.522864 0.147597 0.996751 0.0790341 0.015544
0.658536 0.539167 0.127739 0.996308 -0.0834752 0.0200433
0.658162 0.526709 0.136109 0.995434 0.050216 -0.0811712
0.657967 0.512003 0.154532 0.996032 -0.0298453 0.0838412
0.656806 0.503648 0.114903 0.999683 -0.0250203 -0.00292788
0.656995 0.566219 0.124456 0.997325 -0.01864 0.0706776
0.65653 0.579334 0.142913 0.99346 -0.0256383 0.111267
0.658963 0.514421 0.138089 0.992519 0.121927 0.00627958
0.661868 0.544103 0.119306 0.991818 -0.0669897 0.108675
0.657146 0.524212 0.152454 0.999341 0.034976 0.00972008
0.658232 0.546233 0.13884 0.997072 -0.0506022 -0.0573295
0.656498 0.501429 0.159636 0.99325 0.0432282 0.107636
0.661231 0.629013 0.062025 0.996399 0.0380187 0.0757871
0.66146 0.602088 0.0564411 0.999563 -0.0134621 0.0263368
0.657288 0.631267 0.0103838 0.997437 -0.034366 0.0627508
0.664098 0.641051 0.0166297 0.998732 0.0435826 0.0252159
0.65394 0.601286 0.000968435 0.999919 0.00926363 -0.00871186
0.658687 0.635542 0.0304041 0.996613 -0.0719513 0.0398128
0.663396 0.618164 0.0537255 0.999146 0.041252 -0.00222008
0.657738 0.611282 0.0387371 0.995562 0.00072953 -0.0941095
0.659396 0.617059 0.00424486 0.997099 -0.0642642 0.040781
0.663463 0.622559 0.00793207 0.994809 -0.078233 0.0650751
0.656322 0.631792 0.150129 0.9973 -0.0668837 0.0303063
0.661405 0.614145 0.129954 0.998198 -0.039173 -0.045465
0.655107 0.618826 0.121967 0.997371 -0.0617955 -0.037858
0.655343 0.615673 0.111578 0.993977 -0.0881061 0.0651674
0.661906 0.606992 0.0923618 0.999782 -0.0169216 -0.0122171
0.662351 0.659081 0.121431 0.960099 0.209806 0.184908
0.662867 0.640403 0.131324 0.99733 -0.071009 0.0170363
0.661292 0.585578 0.145234 0.998035 -0.0304119 0.0547784
0.656425 0.586257 0.160078 0.999855 -0.0168427 0.00243917
0.662296 0.628124 0.106369 0.998199 -0.0463699 0.0380573
0.66355 0.649363 0.148601 0.999168 0.00291618 -0.0406819
0.658758 0.64918 0.128091 0.988901 0.128529 0.0745344
0.660691 0.602469 0.137706 0.99752 0.0260747 -0.0653809
0.657315 0.640911 0.161044 0.992947 -0.107921 0.0490924
0.661444 0.661045 0.0988357 0.972347 0.216227 -0.0882423
0.663861 0.454901 0.173228 0.975853 -0.18402 0.117677
0.655039 0.49429 0.224402 0.993945 0.085826 0.0686108
0.659947 0.457744 0.169187 0.980925 -0.185662 0.0575832
0.662052 0.48939 0.215617 0.998129 0.0280783 0.0543222
0.666877 0.487814 0.246859 0.997621 0.0412145 0.0552595
0.657525 0.479523 0.19443 0.991703 -0.10098 -0.079553
0.65927 0.464062 0.219685 0.969357 -0.243264 0.0341959
0.659285 0.472633 0.233121 0.986689 -0.159411 0.0321272
0.653997 0.493452 0.252463 0.995737 0.054145 0.0746703
0.661783 0.579137 0.179697 0.99486 0.0963629 0.0311011
0.658071 0.537915 0.190352 0.998409 0.0521044 -0.0215436
0.658606 0.552294 0.247064 0.999536 0.00602496 0.0298429
0.660268 0.525716 0.176656 0.999096 -0.0340021 0.0255278
0.660569 0.507807 0.187915 0.991684 -0.022007 -0.126798
0.65767 0.57115 0.190428 0.997684 0.0551339 -0.039833
0.657924 0.542867 0.212863 0.995497 0.0834438 -0.0449886
0.657457 0.549142 0.181748 0.999523 0.0118276 0.028541
0.662468 0.549646 0.217312 0.996949 0.0622837 -0.0470411
0.658729 0.533888 0.209136 0.993918 0.0983509 -0.0495353
0.662304 0.582062 0.219877 0.990909 -0.0416444 0.127929
0.654489 0.57827 0.242144 0.997322 0.0582725 -0.0441943
0.656382 0.557142 0.175929 0.999887 -3.00262e-05 0.0150221
0.658267 0.535498 0.196544 0.996173 0.0797926 -0.0356596
0.658018 0.509373 0.250663 0.999693 0.0198188 0.0148632
0.660617 0.56899 0.293763 0.987703 0.148423 -0.0491303
0.659356 0.573764 0.254196 0.99404 0.108158 -0.0136331
0.654694 0.535844 0.263609 0.999709 0.00926315 -0.0222772
0.656342 0.616959 0.203821 0.997062 -0.0479033 0.0597735
0.658609 0.592751 0.198961 0.989249 0.0359807 -0.141749
0.65901 0.615657 0.201259 0.997695 -0.0664962 -0.0135514
0.659451 0.596335 0.202523 0.987925 0.056154 -0.144399
0.662192 0.617695 0.205104 0.993818 -0.0831377 0.0735868
0.658136 0.593656 0.167843 0.997032 -0.0701439 -0.0317393
0.654534 0.621973 0.218764 0.980396 -0.148386 0.129637
0.656749 0.615274 0.224488 0.997759 -0.0627826 0.0231604
0.660388 0.592912 0.232208 0.997273 0.00175944 0.0737743
0.663138 0.628552 0.188528 0.996457 0.0365897 -0.0757312
0.659713 0.638298 0.218165 0.972252 0.216022 0.0897748
0.654783 0.588765 0.271596 0.977219 0.0759499 0.198178
0.657118 0.584542 0.268801 0.996829 0.0409208 0.0682491
0.660177 0.605533 0.26438 0.958999 0.183258 0.216187
0.661103 0.600671 0.264251 0.989592 0.0457745 0.136428
0.659673 0.588522 0.260713 0.997121 -0.0134094 0.0746349
0.654985 0.596611 0.260605 0.996021 0.0428451 0.078146
0.65898 0.480795 0.049012 0.999527 -0.0124006 -0.0281395
0.660251 0.488612 0.0773973 0.999569 -0.0180555 0.0231487
0.657546 0.500442 0.0784438 0.997703 -0.0499765 0.0457256
0.661609 0.487391 0.0244883 0.993392 0.0391517 0.107889
0.660709 0.464638 0.0230875 0.99719 0.00811999 0.0744695
0.661143 0.449339 0.132681 0.996563 -0.0818999 0.0124127
0.656503 0.470327 0.127778 0.999561 -0.00793412 -0.0285397
0.656199 0.490825 0.127001 0.999545 -0.0284743 -0.00996329
0.65611 0.496466 0.084563 0.998722 -0.0313032 0.0396854
0.655394 0.450615 0.121068 0.991578 -0.11688 0.0557864
0.658135 0.53951 0.0565478 0.996227 0.0532821 -0.0685033
0.656892 0.513351 0.0393827 0.999074 0.014771 -0.0404092
0.652414 0.5345 0.00315258 0.991375 -0.0361067 -0.125987
0.655895 0.551523 0.0167038 0.985504 -0.103297 -0.134578
0.657789 0.515434 0.0171352 0.998898 0.0423738 -0.0201751
0.661193 0.53789 0.0501879 0.998388 0.0326107 -0.0464582
0.659591 0.564276 0.0215386 0.996372 -0.0666519 -0.052913
0.656533 0.554984 0.0589384 0.997541 0.069625 -0.00797194
0.657577 0.563538 0.0790798 0.994007 -0.0155558 -0.108204
0.661241 0.545951 0.0257365 0.988597 -0.116083 -0.0959213
0.659081 0.520397 0.022761 0.998935 0.00123831 -0.0461343
0.660617 0.536565 0.0789094 0.996993 0.0766791 -0.0111809
0.655786 0.514516 0.0237214 0.999248 0.0374293 -0.0101163
0.661082 0.562635 0.121898 0.996832 -0.0561805 0.0563018
0.659391 0.579242 0.110379 0.98174 0.185883 -0.0404233
0.657941 0.531859 0.123025 0.996344 -0.0579233 0.0628016
0.660416 0.534005 0.0891259 0.999176 0.0113515 0.0389765
0.653975 0.532045 0.121751 0.996503 -0.0669482 0.0500022
0.660625 0.518344 0.0972275 0.998257 -0.0267748 0.0525861
0.660866 0.537729 0.12828 0.998109 -0.0612846 0.00473695
0.657267 0.52003 0.141767 0.991706 0.128452 -0.00435415
0.663223 0.565627 0.0992207 0.998953 0.00959703 -0.0447369
0.655721 0.537578 0.13346 0.998101 -0.0451319 -0.0419116
0.653342 0.569002 0.157046 0.996821 0.0771919 0.0197518
0.656582 0.543172 0.154689 0.999736 -0.0221871 -0.0059736
0.661064 0.564798 0.108605 0.999923 -0.00437766 -0.0115968
0.660486 0.525935 0.143504 0.997579 0.0695122 -0.00190324
0.65989 0.522486 0.111796 0.997131 -0.039747 0.0644138
0.658375 0.559742 0.150705 0.989901 0.12892 0.058957
0.660692 0.552063 0.150367 0.997007 0.0766535 0.0100597
0.6567 0.564049 0.140844 0.993381 0.0683911 0.0922896
0.663459 0.545817 0.163469 0.994715 0.0530918 0.0878878
0.656637 0.640827 0.0519084 0.993799 0.106 0.0335887
0.657247 0.635019 0.0402899 0.999935 -0.0105068 -0.00437928
0.662341 0.588311 0.0752012 0.999792 -0.0179112 0.00973903
0.656187 0.620374 0.0648893 0.993713 0.0232983 0.109509
0.657264 0.601371 0.0289381 0.99834 0.0477698 -0.0321816
0.657489 0.643528 0.0208636 0.975602 0.211732 0.0580465
0.661058 0.584632 0.0232878 0.998137 0.0592767 0.0144613
0.660532 0.595488 0.0581827 0.994524 -0.104335 0.0060911
0.655505 0.640839 0.0790868 0.999967 -0.0010017 0.008092
0.661187 0.612361 0.0896583 0.997741 0.00299245 -0.0671151
0.662162 0.625281 0.109125 0.994905 -0.0862185 0.0522479
0.6539 0.595697 0.0835633 0.99881 0.00139833 0.0487529
0.655228 0.616967 0.147737 0.999515 -0.000529254 0.0311234
0.659811 0.595655 0.129861 0.991013 0.0729541 -0.112121
0.662817 0.616317 0.162531 0.997037 -0.0203121 -0.0741923
0.653657 0.600523 0.125221 0.99485 0.0289264 -0.0971433
0.657216 0.588126 0.131175 0.992661 0.120631 -0.00852604
0.658007 0.586939 0.154165 0.996348 -0.030569 0.0797303
0.661555 0.642067 0.115048 0.998867 -0.00823042 0.0468712
0.659893 0.654787 0.100323 0.989595 0.0808524 -0.119012
0.655645 0.642038 0.129085 0.999171 0.00443851 0.0404685
0.658345 0.635365 0.138587 0.998633 -0.0521233 0.00388131
0.659408 0.627729 0.144176 0.998724 -0.0438184 0.0250976
0.6605 0.65028 0.138375 0.973835 0.225737 -0.0262277
0.660437 0.639877 0.161809 0.997805 -0.0548332 0.0371171
0.659958 0.630758 0.141614 0.997484 -0.049301 0.0509508
0.659959 0.481176 0.243182 0.998965 0.0248347 0.0381089
0.659747 0.475569 0.201107 0.993781 -0.105754 -0.0348537
0.657967 0.461744 0.186164 0.988669 -0.13043 0.0743044
0.661845 0.479623 0.192021 0.996405 -0.0601275 -0.0596871
0.656169 0.480668 0.239528 0.998225 0.0433634 0.0408292
0.662225 0.492264 0.183442 0.998828 0.0178426 -0.0449832
0.65695 0.48295 0.17121 0.998747 0.0390459 0.0312893
0.658864 0.561305 0.167357 0.997173 0.0740457 0.0127983
0.656064 0.551213 0.181642 0.999039 0.00164163 0.0437916
0.659853 0.582716 0.210458 0.996463 0.073491 -0.0407428
0.662392 0.523892 0.173703 0.998794 -0.0490739 -0.00161095
0.659394 0.517612 0.198306 0.997641 0.0292303 -0.0621133
0.664129 0.5618 0.242436 0.999345 0.0354832 0.00704076
0.658797 0.507463 0.16766 0.99716 0.0137115 0.0740552
0.656101 0.501397 0.221901 0.994978 0.0305877 0.095308
0.653183 0.50714 0.176282 0.999659 0.00432524 -0.0257529
0.657856 0.569201 0.244993 0.998075 0.0592383 -0.0183558
0.656028 0.509166 0.173841 0.999646 -0.0254082 0.00793502
0.661116 0.532344 0.206314 0.992342 0.0941698 -0.0799314
0.658839 0.552988 0.21694 0.997043 0.0688027 -0.0342374
0.660814 0.511635 0.191591 0.992224 -0.0162685 -0.123398
0.658633 0.506094 0.21633 0.994944 -0.0222236 0.0979396
0.661015 0.534036 0.225075 0.998276 0.05814 -0.00799325
0.659012 0.511695 0.235575 0.994149 -0.095758 0.049988
0.658186 0.51679 0.260119 0.952641 -0.185528 0.240944
0.658044 0.512888 0.253886 0.995658 -0.0118135 0.0923397
0.659437 0.562683 0.259448 0.998252 0.0262675 0.0529363
0.656528 0.556574 0.28197 0.999259 -0.0111308 -0.036833
0.656013 0.572245 0.26532 0.998104 0.0466925 0.040101
0.654529 0.540605 0.284242 0.970821 -0.212361 0.111396
0.657596 0.567472 0.301897 0.977268 0.192584 0.0886476
0.65808 0.579181 0.262963 0.997371 0.0408322 0.0598693
0.655391 0.596275 0.195548 0.990788 -0.0827877 -0.107174
0.662696 0.602714 0.176372 0.994582 -0.0997583 0.0292396
0.654055 0.59967 0.164303 0.996862 -0.0656601 -0.0442183
0.665917 0.589137 0.203186 0.975182 0.118425 -0.187071
0.661002 0.607363 0.176479 0.995194 -0.0927291 0.0314646
0.656278 0.599011 0.237851 0.999851 -0.0129623 0.0114411
0.662604 0.615312 0.207929 0.993585 -0.0529563 0.0999254
0.653675 0.597809 0.246142 0.999026 -0.00500487 -0.043851
0.659943 0.612478 0.242136 0.997751 -0.020407 0.0638485
0.658205 0.596656 0.223291 0.989477 0.0971542 0.107219
0.656522 0.632901 0.184388 0.997441 0.0715006 0.00018642
0.652991 0.644715 0.190863 0.97801 0.208551 0.00155569
0.658 0.658096 0.205146 0.954186 0.205413 -0.217564
0.661904 0.630767 0.19445 0.994011 0.0852543 -0.0683645
0.655174 0.64618 0.206332 0.971797 0.234777 -0.0221486
0.659415 0.630019 0.214494 0.981175 -0.0892953 0.171238
0.662059 0.634556 0.226894 0.997916 0.045733 0.0455238
0.653319 0.650559 0.209288 0.988217 0.147669 -0.0402633
0.657573 0.655366 0.21059 0.990989 0.0184345 -0.132672
0.660684 0.633693 0.223723 0.999063 0.00438834 0.0430651
0.663067 0.609768 0.259307 0.972667 0.213991 0.0901525
0.658668 0.596672 0.269443 0.972196 0.0790241 0.22043
0.661443 0.451095 0.02849 0.955669 -0.287258 -0.0646503
0.657145 0.455655 0.0353906 0.988339 -0.150694 0.0218513
0.661765 0.457128 0.0723814 0.999789 -0.0110256 -0.0173083
0.658983 0.452903 0.0590413 0.964964 -0.256407 -0.0556719
0.657309 0.449662 0.077259 0.980843 -0.194702 -0.0062314
0.658811 0.490955 0.0121195 0.996057 0.045383 0.0762244
0.663342 0.488061 0.0176475 0.994165 0.0441775 0.0984085
0.656664 0.494847 0.0315421 0.998195 0.037698 0.0467528
0.656412 0.491402 0.034585 0.998064 0.0348515 0.0515151
0.658298 0.472361 0.0737353 0.99993 0.00412068 -0.0111193
0.653897 0.459384 0.058162 0.957717 -0.28114 -0.0611378
0.662511 0.45699 0.120591 0.999643 -0.0243113 -0.0110875
0.660854 0.450296 0.0821607 0.99971 -0.020982 0.0118069
0.656832 0.458846 0.119058 0.999345 -0.0358911 -0.00457841
0.658273 0.447663 0.106902 0.994611 -0.0720689 0.0745262
0.657638 0.448733 0.151231 0.965106 -0.25412 -0.0631904
0.660549 0.474476 0.104491 0.999613 0.00320548 0.0276167
0.658816 0.478246 0.118906 0.999851 0.00946663 -0.0144203
0.658532 0.481103 0.115653 0.999912 -0.00807345 -0.0105098
0.655861 0.461098 0.115441 0.996412 -0.0717712 0.0448537
0.653878 0.492195 0.0940327 0.999663 -0.00223732 0.0258669
0.65813 0.487996 0.0875539 0.999669 0.0058159 0.025071
0.661414 0.470954 0.153857 0.997422 -0.0136558 -0.0704454
0.655964 0.490363 0.154755 0.999263 0.0349531 0.0158465
0.661275 0.460666 0.156049 0.982518 -0.161898 -0.0919096
0.660345 0.500223 0.150317 0.999309 -0.0304372 0.0213405
0.658981 0.474403 0.143192 0.996229 -0.0125186 -0.0858567
0.657932 0.466331 0.141857 0.992375 -0.102042 -0.0691352
0.661525 0.467992 0.156983 0.997427 -0.0234273 -0.0677473
0.664061 0.491498 0.163804 0.998094 0.0368769 0.0494746
0.656012 0.506007 0.00622961 0.998555 0.0537307 -0.00130621
0.655543 0.538165 0.0211481 0.995049 -0.0538275 -0.0835472
0.656933 0.53797 0.0482746 0.99906 0.0222288 -0.0372258
0.656152 0.536749 0.0401604 0.999852 -0.014833 -0.00873018
0.662536 0.521225 0.0768685 0.999479 -0.0244528 0.0210544
0.659723 0.507401 0.0620715 0.997947 -0.0390002 -0.0507977
0.660259 0.52891 0.0700829 0.997401 0.0436942 -0.0572944
0.660426 0.502132 0.07251 0.998624 -0.0467177 0.0238333
0.660365 0.561777 0.025121 0.996211 -0.0689182 -0.0530426
0.663234 0.567641 0.0353224 0.998009 -0.0172402 0.0606743
0.658627 0.566894 0.0216537 0.997248 -0.064307 -0.036903
0.655514 0.545587 0.0304217 0.994487 -0.101909 -0.0247114
0.661353 0.575134 0.0212143 0.999203 -0.0236488 -0.0321498
0.658246 0.553542 0.0221729 0.988772 -0.11348 -0.0972254
0.658999 0.550162 0.0141474 0.985292 -0.0993954 -0.138996
0.657229 0.57131 0.0552674 0.997874 -0.0511295 0.0404009
0.654916 0.550202 0.0535801 0.998312 0.0513632 0.0271199
0.661662 0.557426 0.0434119 0.993749 -0.0371554 0.105271
0.659483 0.545072 0.0728153 0.995454 0.0725325 -0.0617357
0.65578 0.560253 0.0486527 0.991141 0.0250665 0.13043
0.657044 0.558648 0.0598969 0.997631 0.068665 -0.0042549
0.651855 0.57126 0.0601342 0.998657 -0.0390432 -0.0340443
0.658794 0.539388 0.0894438 0.999746 0.00951098 0.0204282
0.655661 0.514958 0.102019 0.996094 -0.0598115 0.0649552
0.65625 0.523882 0.121281 0.99997 0.00739771 -0.00239305
0.658835 0.506566 0.0945952 0.995892 -0.0750882 0.0505969
0.664856 0.508999 0.104335 0.997083 -0.0701897 0.0299914
0.655574 0.519315 0.113344 0.998293 -0.01439 0.0566096
0.660061 0.528324 0.10223 0.99789 -0.0396694 0.0514038
0.661255 0.539498 0.107995 0.992671 -0.106141 0.0577847
0.657822 0.529881 0.101675 0.99764 -0.0503075 0.0467198
0.66064 0.535733 0.107165 0.991265 -0.119463 0.0558683
0.660252 0.523781 0.122579 0.999911 -0.005546 -0.0121207
0.65852 0.539447 0.131191 0.995004 -0.0781925 -0.0620783
0.658118 0.526354 0.132619 0.995441 0.0753688 -0.0584519
0.658442 0.522305 0.155935 0.999733 0.0139797 0.0183804
0.66555 0.513262 0.139907 0.994566 0.10154 0.02298
0.659543 0.518574 0.142242 0.994704 0.100162 0.0230619
0.658925 0.542058 0.158508 0.999689 -0.00816469 0.0235582
0.664046 0.573409 0.11449 0.995888 0.090535 0.00322258
0.654077 0.581832 0.108877 0.98062 0.192318 -0.0373898
0.660744 0.58182 0.08727 0.996645 0.0798481 0.017968
0.660605 0.56762 0.108904 0.999754 0.0193976 -0.0107991
0.658236 0.562274 0.10023 0.999241 0.00787356 -0.0381614
0.660049 0.54307 0.0834546 0.999251 0.0364039 -0.0131514
0.659085 0.547153 0.142584 0.99664 -0.0373805 -0.0728805
0.659085 0.551914 0.122984 0.997098 -0.0233927 0.0724409
0.661302 0.576526 0.143981 0.991979 -0.021359 0.124583
0.653416 0.584072 0.155721 0.998808 -0.0170967 0.0457235
0.659963 0.57474 0.130081 0.996804 0.0437221 0.0668666
0.667314 0.573091 0.1223 0.996831 0.0577843 0.0546675
0.662247 0.543191 0.142993 0.995808 -0.057954 -0.0707604
0.659705 0.565493 0.131972 0.997383 -0.000868231 0.0722915
0.668493 0.551144 0.14595 0.99834 0.0466677 -0.0337632
0.655826 0.61842 0.0137832 0.995665 -0.0743364 0.0559069
0.659431 0.604892 0.00867345 0.99992 -0.00148483 0.0125702
0.65957 0.592274 0.00560711 0.999263 0.0315852 -0.0218169
0.657466 0.607581 0.0268121 0.999315 0.00591273 -0.0365422
0.654908 0.608973 0.0221258 0.9999 -0.0107159 0.00928639
0.662188 0.602384 0.0532898 0.999524 -0.0293867 -0.00935869
0.658811 0.585555 0.0660606 0.996158 -0.0866155 -0.0129175
0.655791 0.62347 0.0757834 0.998326 0.0134985 0.0562346
0.654611 0.589052 0.0649097 0.995801 -0.0901281 0.0160262
0.658297 0.603322 0.0587902 0.997256 0.000418056 0.0740236
0.661272 0.5874 0.0710467 0.999264 -0.0378492 0.00626581
0.659362 0.622478 0.0736929 0.997823 0.0411748 0.0515198
0.660109 0.59557 0.0651066 0.996406 -0.0676072 0.0510343
0.657153 0.640216 0.0125643 0.991289 0.111045 0.0708152
0.658612 0.6264 0.0245637 0.996714 -0.0794079 0.0159879
0.66356 0.646717 0.0213557 0.985324 0.168852 0.0250092
0.662368 0.649478 0.0461714 0.993592 0.113015 -0.00156213
0.658786 0.645184 0.0677444 0.998754 0.023696 0.0439275
0.660995 0.643581 0.0718416 0.999303 0.00829282 0.0363857
0.658103 0.647352 0.0505623 0.980968 0.193586 -0.0150498
0.660605 0.636979 0.0459601 0.999696 -0.0166253 0.0182278
0.655063 0.59661 0.0876886 0.999565 -0.00179457 0.0294312
0.658599 0.604768 0.0871819 0.999876 0.0126968 -0.00927521
0.659062 0.616874 0.0862162 0.997728 -0.0268664 -0.061782
0.659076 0.611209 0.0919916 0.999416 -0.011913 -0.0320183
0.655729 0.615137 0.0913597 0.998936 -0.00592787 -0.0457435
0.655544 0.608477 0.146656 0.999651 0.0174072 0.0198713
0.655567 0.614918 0.163454 0.996175 -0.0230388 -0.0842889
0.658719 0.588752 0.125124 0.988806 0.131569 -0.0703666
0.664041 0.599568 0.154393 0.999645 -0.0259982 -0.00587805
0.656788 0.625694 0.126916 0.997798 -0.0655084 -0.0104142
0.655408 0.59564 0.125062 0.991444 0.0970039 -0.087344
0.657478 0.603231 0.133512 0.996874 0.0135204 -0.0778451
0.65559 0.600021 0.151966 0.999077 -0.00179989 0.0429081
0.659178 0.613324 0.14203 0.999987 -0.000191079 -0.00516518
0.657058 0.661785 0.113491 0.957482 0.258955 0.127161
0.65933 0.651597 0.0928929 0.992149 0.0938518 -0.0826598
0.661405 0.661149 0.108593 0.995585 0.0923862 -0.0165883
0.660143 0.640492 0.081034 0.999719 -0.0229258 -0.00597479
0.66255 0.655892 0.0851192 0.977766 0.194369 -0.0787045
0.661219 0.647392 0.112587 0.999414 -0.00824419 0.0332204
0.655816 0.629582 0.083858 0.998681 -0.0164562 -0.0486415
0.657135 0.639575 0.109682 0.998682 -0.0300697 0.0415896
0.661511 0.653856 0.157846 0.995717 0.0924421 0.00130816
0.661089 0.65077 0.148024 0.986564 0.126564 -0.103308
0.657918 0.634683 0.122238 0.996058 -0.0700231 0.0544571
0.658554 0.64382 0.139916 0.998406 0.0519457 -0.0220848
0.657202 0.648966 0.158983 0.998556 0.0417054 0.0338493
0.65902 0.629826 0.128335 0.999411 -0.0338846 -0.00549095
0.662271 0.645536 0.128744 0.999227 -0.0164409 0.0357147
0.657346 0.637855 0.148137 0.994136 -0.10305 0.0327647
0.659323 0.457624 0.172455 0.977583 -0.176976 0.114071
0.657674 0.493828 0.172567 0.997502 0.0575318 0.0409885
0.65689 0.48372 0.178027 0.999451 0.0303198 -0.0133378
0.658105 0.474489 0.203987 0.991885 -0.122752 -0.0331132
0.658361 0.500404 0.166748 0.993869 0.0864374 0.0689477
0.660752 0.481612 0.188677 0.996561 -0.058528 -0.0586621
0.653915 0.48871 0.184572 0.998302 0.0206997 -0.0544507
0.65986 0.490566 0.186053 0.997831 0.010835 -0.0649376
0.659912 0.492407 0.172948 0.997666 0.0612265 0.0302202
0.656433 0.482632 0.226994 0.999397 0.0331796 -0.0102843
0.657408 0.472598 0.245524 0.993649 -0.102218 0.0470422
0.662622 0.489503 0.212527 0.998761 0.0112288 0.0484834
0.659446 0.482814 0.233793 0.999702 0.0237983 0.00537679
0.665559 0.495984 0.244728 0.99256 0.121588 -0.00639868
0.664697 0.477212 0.231026 0.998553 -0.0537793 0.00010077
0.655625 0.476944 0.254022 0.994901 0.0265423 0.0972976
0.659199 0.481698 0.252448 0.993827 0.0339492 0.105624
0.659275 0.509994 0.187849 0.991053 -0.0374448 -0.128106
0.659592 0.528697 0.180074 0.999192 0.000122704 0.0401898
0.653202 0.53356 0.182361 0.998848 0.0343308 0.0335323
0.660817 0.542327 0.18181 0.997471 0.0488133 0.0516576
0.662157 0.506629 0.165075 0.997918 0.0188582 0.0616846
0.659698 0.524295 0.166498 0.996929 -0.0645006 0.0444197
0.654029 0.51116 0.176907 0.996111 -0.0747504 -0.0466399
0.661782 0.518916 0.192501 0.995878 0.0172542 -0.0890501
0.66007 0.50407 0.216418 0.9972 -0.00990435 0.0741232
0.661165 0.524183 0.218168 0.999456 -0.0133678 0.0301589
0.659355 0.535824 0.224938 0.997847 0.0646504 -0.0110043
0.659222 0.540498 0.209788 0.995139 0.0837677 -0.0517745
0.661849 0.514559 0.211244 0.998944 -0.0283591 0.0361524
0.658305 0.535859 0.233972 0.999185 -0.0105436 0.0389667
0.660533 0.532774 0.215621 0.996295 0.0774487 -0.03739
0.656334 0.506936 0.241105 0.999049 0.0427192 0.00873413
0.65744 0.504313 0.237994 0.997601 0.068699 -0.0085595
0.660778 0.565025 0.199847 0.996185 -0.0721178 -0.0491284
0.651754 0.579805 0.202473 0.973732 0.092446 -0.208084
0.658724 0.569328 0.196722 0.997514 -0.0314702 -0.0630551
0.659027 0.578449 0.197667 0.98118 0.0752883 -0.177813
0.657636 0.56326 0.164029 0.997035 0.0756296 0.0141662
0.658818 0.583613 0.188846 0.99117 0.100966 -0.0859527
0.659712 0.570243 0.200118 0.993288 -0.0441456 -0.106912
0.66568 0.577591 0.205086 0.97219 0.0785595 -0.220623
0.661115 0.572056 0.16922 0.998754 0.0202195 -0.0456331
0.660404 0.547983 0.179111 0.996669 0.0403739 0.0708632
0.660298 0.552046 0.192237 0.999956 -0.00799226 -0.00499442
0.655016 0.551956 0.200575 0.999536 0.0245692 0.0179791
0.659133 0.581655 0.201073 0.964422 0.074603 -0.253623
0.651578 0.55324 0.209441 0.997747 0.0638357 -0.0206573
0.661485 0.548113 0.207758 0.997836 0.0417541 -0.0507934
0.652148 0.572977 0.229515 0.99897 0.00833638 -0.0446146
0.650043 0.5059 0.24956 0.999664 0.00954826 0.0240896
0.662006 0.53448 0.284533 0.970699 -0.198173 0.135906
0.66253 0.522509 0.251874 0.998233 -0.036934 0.0465567
0.659542 0.540409 0.273021 0.999811 -0.0191203 0.00346799
0.659824 0.539536 0.293085 0.972012 -0.152401 0.178793
0.658276 0.547849 0.267391 0.999554 -0.0293029 -0.00582054
0.660064 0.573825 0.288304 0.98358 0.177648 0.0317972
0.656856 0.545757 0.255406 0.999229 -0.0219042 0.0325874
0.65938 0.572545 0.27702 0.999162 0.0277873 -0.030064
0.659321 0.555954 0.284972 0.998719 -0.0158993 -0.0480353
0.66097 0.583045 0.249112 0.997023 0.0766639 -0.00819816
0.662484 0.5459 0.276333 0.999491 0.0134309 -0.0289372
0.657351 0.5511 0.278995 0.999439 0.00679508 -0.0327846
0.660579 0.565526 0.248065 0.999619 0.0275889 0.0012126
0.660704 0.548753 0.290513 0.994765 -0.059365 0.0831829
0.655108 0.553321 0.290328 0.997951 -0.0611471 0.0188175
0.663175 0.56884 0.30483 0.978725 0.0326084 0.20257
0.662826 0.565572 0.302045 0.994635 -0.0214176 0.101203
0.65977 0.601317 0.184759 0.992869 -0.0988843 0.0665805
0.654619 0.586695 0.188205 0.999355 0.033232 -0.013586
0.657508 0.597312 0.189969 0.995617 -0.0929089 -0.0107054
0.658085 0.585691 0.182656 0.993119 0.0630582 0.0986875
0.659283 0.594231 0.165054 0.997143 -0.072795 -0.0201569
0.658366 0.606151 0.184949 0.993687 -0.0872456 0.0705312
0.652734 0.591664 0.194511 0.990837 -0.00578375 -0.134937
0.656376 0.621969 0.189237 0.999121 0.0016685 -0.0418959
0.652945 0.588011 0.17852 0.998935 0.00594706 0.045748
0.657334 0.613512 0.17315 0.999038 -0.0214881 -0.0382357
0.655922 0.614414 0.215434 0.98732 -0.0601639 0.146901
0.656051 0.615572 0.241786 0.990818 0.0314087 0.131501
0.658936 0.616466 0.222037 0.992914 -0.0839631 0.0840918
0.656047 0.60472 0.243982 0.999908 -0.0131596 0.00338433
0.661783 0.621122 0.228685 0.994151 -0.107111 -0.013809
0.660374 0.597416 0.211838 0.99843 0.0467339 0.0308771
0.654912 0.619672 0.224515 0.993595 -0.106106 0.0388643
0.658362 0.607277 0.209328 0.994769 0.00452583 0.10205
0.657057 0.596704 0.237812 0.999182 0.00910619 0.039398
0.659886 0.611144 0.21294 0.988428 -0.0264507 0.14937
0.654577 0.59701 0.219712 0.993536 0.083819 0.0765516
0.658684 0.590948 0.216961 0.995756 0.0699527 0.0598001
0.656523 0.635968 0.196748 0.976725 0.178779 -0.118516
0.661677 0.635524 0.176895 0.996855 0.0790485 -0.00557326
0.656474 0.64934 0.198094 0.960608 0.259296 -0.0999916
0.663087 0.637012 0.201261 0.967775 0.235455 -0.0892884
0.659018 0.64803 0.198529 0.962176 0.252875 -0.101352
0.659938 0.654083 0.21669 0.999145 -0.0314743 -0.0268002
0.660346 0.633144 0.212032 0.991965 0.105473 0.0698613
0.660544 0.633346 0.215 0.991079 0.0495045 0.123738
0.661897 0.660189 0.214757 0.993399 -0.0600054 -0.0977662
0.657183 0.631897 0.228734 0.994707 0.0751511 0.0700728
0.663997 0.632443 0.209784 0.998015 0.0464763 0.0424906
0.65918 0.633111 0.232014 0.990806 0.11696 0.068004
0.66084 0.646681 0.213341 0.99355 0.11277 0.011853
0.659604 0.643384 0.212802 0.972883 0.215166 0.0848609
0.663636 0.666085 0.209964 0.978443 0.0395857 -0.202688
0.657918 0.606161 0.250046 0.994564 0.0980334 -0.0351
0.656476 0.594948 0.263523 0.997782 -0.0183568 0.0639837
0.224318 0.0568182 0.0500683 0.999087 -0.0198081 -0.0378621
0.232572 0.0768152 0.0580874 0.999482 -0.0321761 -0.000496417
0.22273 0.0607409 0.0225149 0.997858 -0.0631161 -0.0171908
0.223406 0.0812482 0.0790906 0.992505 -0.12065 0.0194208
0.225898 0.0544266 0.0132168 0.999049 -0.0422983 0.010621
0.219336 0.0767595 0.0793951 0.994315 -0.0978575 0.0419782
0.227109 0.0586498 0.0751423 0.99827 -0.0172521 0.0562105
0.223935 0.0807375 0.104152 0.999422 -0.0319003 0.0117067
0.220774 0.0773937 0.116487 0.999232 -0.0206586 -0.0333102
0.226019 0.0878444 0.0607872 0.997588 0.0526114 0.0452838
0.227829 0.135092 0.0674895 0.996663 -0.0792846 0.0194322
0.225139 0.11969 0.0496961 0.993653 -0.0953149 0.0597314
0.229423 0.102173 0.0173802 0.998675 -0.00534569 0.0511797
0.23097 0.0874709 0.0235708 0.999247 -0.0387554 -0.00171393
0.223848 0.112268 0.0430192 0.999933 0.00758494 -0.00875928
0.223127 0.0945561 0.0137402 0.999823 -0.0174489 -0.00700884
0.224851 0.0957382 0.0620549 0.992578 0.0981054 0.0718652
0.227909 0.0960732 0.0798181 0.998712 0.0490668 -0.0129459
0.222924 0.150516 0.109799 0.994814 -0.0351306 0.0954512
0.224977 0.125584 0.133477 0.997468 -0.0699966 0.0125665
0.226361 0.0960282 0.128938 0.997901 0.0534717 -0.0365301
0.229672 0.148743 0.098877 0.997913 -0.0466796 0.0446193
0.226291 0.119461 0.118724 0.999252 0.00389856 -0.0384717
0.228372 0.165226 0.137369 0.998302 -0.0530108 -0.0241558
0.222232 0.111451 0.0905373 0.999015 0.0351901 0.0270323
0.22878 0.144666 0.0911235 0.998843 0.0450523 0.0167961
0.222057 0.162921 0.110718 0.992188 -0.0620547 0.108222
0.226314 0.0883466 0.0942969 0.997599 -0.0532352 0.0443085
0.225727 0.139474 0.130247 0.997437 -0.0530378 -0.0480177
0.227628 0.152352 0.15687 0.997211 -0.0734031 0.0134831
0.229507 0.145777 0.142073 0.998957 -0.0270091 0.0368249
0.222685 0.129103 0.119582 0.996291 -0.0810685 -0.0288622
0.226069 0.183403 0.00920419 0.999907 -0.00328425 0.013265
0.227077 0.197855 0.0332595 0.999839 -0.0150591 0.00980615
0.216983 0.171034 0.0345289 0.99954 0.0240805 -0.0184216
0.227805 0.183515 0.0706426 0.997594 0.0573232 -0.0389824
0.226557 0.170822 0.100885 0.999727 -0.00213226 0.0232581
0.227622 0.172203 0.122664 0.998325 -0.038694 0.0429999
0.229264 0.177058 0.14341 0.999963 0.00821536 -0.00259673
0.224791 0.249081 0.0843374 0.995724 0.082885 0.0407897
