ply
format ascii 1.0
comment Aron generated
element vertex 828
property float x
property float y
property float z
property float nx
property float ny
property float nz
end_header
0.0777572 0.0141025 0.031469 0.124303 -0.958327 -0.257212
0.171022 0.0487116 0.708259 -0.00455769 -0.999867 -0.0156389
0.221827 0.0871229 0.564715 0.999378 0.0280134 -0.0214352
0.195833 0.0487019 0.70818 -0.0144544 0.999884 0.00482551
0.234523 0.0126006 0.000926983 -0.994028 0.00277447 -0.10909
0.176347 0.153988 0.0469285 0.00367086 0.999874 -0.0154588
0.0575702 0.0314292 0.0977507 -0.669668 -0.741145 0.0474233
0.133492 0.0394116 0.324827 -0.999808 -0.0166553 0.0103224
0.116727 0.133891 0.0936584 -0.410548 -0.904947 0.111897
0.195092 0.0487286 0.705418 -0.0060097 -0.99995 -0.00805387
0.271067 0.043037 0.0494815 0.192506 -0.102352 0.975944
0.242713 0.101603 0.175486 -0.987152 0.0378768 -0.15523
0.0263073 0.0267332 0.0485956 0.0385274 -0.0339164 -0.998682
0.0924191 0.0176479 0.166017 0.000125437 0.999999 -0.0017101
0.0856893 0.132418 0.287229 -0.700048 0.00156584 0.714094
0.11676 0.139209 0.149516 -0.99983 -0.0079582 0.0166534
0.175109 0.0415852 0.623336 -0.999958 0.00695368 0.0059216
0.221777 0.0354809 0.503807 0.999851 0.0155417 0.00756307
0.239235 0.0175586 0.0977747 0.00052115 -1 -0.000120874
0.31163 0.0523435 0.043976 0.99998 -0.00596842 0.00197714
0.0754587 0.159823 0.0486136 -0.167659 -0.418286 0.892708
0.151313 0.0457452 0.280506 0.0106513 0.999909 0.00823677
0.121743 0.0311431 0.0933357 0.0362125 0.999344 -0.000506565
0.0952245 0.132397 0.391101 0.0157876 -0.999874 0.00173022
0.271105 0.129084 0.141107 0.506511 -0.862051 0.01774
0.271117 0.0819875 0.165842 -0.998846 0.0464499 -0.0122019
0.133509 0.0415807 0.529184 -0.999911 -0.00140501 -0.0132728
0.242652 0.0573542 0.233715 0.999983 -0.00343036 0.00469351
0.0824431 0.0311748 0.228543 0.0265065 0.997107 -0.0712398
0.248108 0.15396 0.00256617 0.00220301 -0.999505 0.0313712
0.110802 0.0311251 0.383694 0.0146209 0.999879 -0.00532572
0.15178 0.03112 0.0763416 -0.0162685 0.999825 0.00928342
0.216384 0.108219 0.612024 -0.999937 0.0104218 0.00416338
0.080468 0.0371624 0.36053 0.999984 -0.00370569 0.00436224
0.310871 0.137548 0.0486217 -0.259718 -0.16252 0.951911
0.156041 0.117718 0.688539 -0.913661 -0.000999962 -0.406476
0.125234 0.0311249 0.279598 -0.350602 0.0409137 0.93563
0.084864 0.147315 0.0786746 0.0193515 -0.99951 0.0246218
0.221862 0.114684 0.387492 0.999973 -0.00721939 0.00140262
0.154185 0.132319 0.24233 0.00792364 0.999964 0.00318309
0.169552 0.0487005 0.703968 0.0027851 0.999357 -0.0357353
0.311707 0.116913 0.00847499 0.999682 0.0240673 0.00758569
0.221843 0.041746 0.321734 1 0 0
0.209683 0.132299 0.47023 -0.000118103 -0.999997 -0.00241739
0.196685 0.132282 0.316529 -0.486805 0.0289818 0.87303
0.0804949 0.110215 0.43421 0 0.840994 -0.541045
0.080467 0.0460727 0.466011 -0.999581 0.0193189 -0.0215717
0.0392986 0.0799824 0.176174 -0.949813 -0.312818 -0.000743065
0.0917758 0.0311558 0.466983 0.0063498 -0.999941 -0.00887009
0.0844012 0.0311578 0.497025 -0.0153812 -0.999824 -0.0107669
0.242683 0.0810458 0.0512828 0.806193 -0.110737 0.581197
0.221791 0.0516042 0.311968 -0.999714 -0.0152312 0.0184331
0.221879 0.0908701 0.50791 0.999988 0.000214927 0.00493198
0.0671123 0.155609 0.0348433 -0.924204 0.361254 -0.123863
0.175439 0.0516816 0.745679 0 -0.567172 0.8236
0.17512 0.0380202 0.626788 0.337701 0.898433 0.280671
0.213629 0.132269 0.579227 0.000410304 0.999962 0.00866954
0.0804412 0.0723527 0.312551 0.999934 0.00947639 -0.00644898
0.121301 0.0311245 0.0624882 -0.0157361 -0.994371 -0.104783
0.108525 0.0311043 0.426882 -0.0977571 0.14431 0.984692
0.0167234 0.154167 0.0238619 -0.711339 0 0.702849
0.080467 0.0893244 0.409312 -0.999965 -0.00421751 0.00724177
0.090079 0.147306 0.0559752 -0.263018 -0.0241118 -0.96449
0.311635 0.0615399 0.0306471 0.999629 -0.0240469 -0.0127581
0.086158 0.068915 0.648175 -0.999988 0.00110643 -0.00478115
0.0251424 0.154144 0.0463812 -0.00670788 -0.999928 0.00992969
0.162282 0.117714 0.662651 0.00626243 0.999938 -0.00921214
0.17055 0.0354966 0.364429 -0.999761 0.00109745 0.0218492
0.152395 0.0457145 0.660776 0.000508509 0.999987 -0.0049893
0.211392 0.0310105 0.265361 -0.00366445 -0.999638 -0.0266519
0.147238 0.132353 0.213127 -0.432486 -0.00683967 -0.901615
0.0597016 0.116389 0.231875 -0.992678 0.118655 0.0226227
0.214208 0.0310558 0.480169 -0.201675 -0.967427 -0.153012
0.165227 0.075048 0.766029 0.02799 -0.0112523 0.999545
0.0596056 0.0239539 0.0688841 -0.543738 -0.0735223 -0.836028
0.271052 0.0578744 0.174403 0.714538 0.699453 -0.014173
0.195956 0.132289 0.489182 -0.0109771 -0.999713 -0.0212738
0.132569 0.114711 0.722781 0.0200375 0.999765 -0.00825764
0.227687 0.119225 0.250573 -0.0115852 0.999869 0.0112976
0.281677 0.0366171 0.0485922 0.0120857 0.00962097 0.999881
0.116413 0.147281 0.0886064 0.0174235 0.996781 0.0782522
0.0783498 0.147284 0.185425 0.0103726 -0.999937 0.00419082
0.13747 0.117728 0.684567 -0.00475133 -0.999894 -0.0137633
0.242641 0.0616742 0.119921 -0.99915 -0.0408476 -0.00560978
0.151041 0.117721 0.394277 0.00285048 0.999872 0.0157702
0.116659 0.0271597 0.084568 0.999979 -0.00636961 0.000888768
0.16362 0.045689 0.58655 0 0.9625 0.271281
0.178043 0.132305 0.4368 -0.0407608 0.999169 -0.000396115
0.133468 0.0394754 0.330999 0.999973 0.00053423 0.00739316
0.128349 0.126698 0.645991 -0.980206 -0.194982 -0.0343293
0.242661 0.08869 0.0527415 -0.999562 0.0292631 0.00431303
0.242729 0.0990024 0.0969492 0.999875 0.015818 -0.000728253
0.170575 0.035757 0.412793 0.999864 0.00375817 -0.01608
0.108013 0.114704 0.739768 -0.0184403 0.99983 0.000752153
0.221806 0.0418197 0.371473 0.999532 -0.019529 -0.0235388
0.134233 0.0457474 0.645523 -0.0153314 0.999855 0.00747482
0.0804941 0.0713393 0.502288 0.999606 0.0261766 0.0100906
0.221795 0.0431917 0.513927 0.99964 -0.00673629 0.0259922
0.215528 0.147205 0.151019 -0.924401 0.269272 -0.270138
0.233838 0.0444639 0.246787 0.0044707 0.999986 -0.00292262
0.221873 0.0882193 0.482919 0.999986 -0.00502337 -0.00140766
0.211499 0.0310405 0.273432 0.00737205 -0.999324 0.0360116
0.164073 0.132348 0.0871409 0 -0.936266 0.351292
0.113161 0.0114009 0.0195595 0.0103267 0.00971418 0.9999
0.174571 0.117687 0.641331 -0.9565 0.213886 0.198395
0.0975678 0.0311156 0.251179 0 0.999831 -0.0183755
0.0596196 0.0774683 0.219953 0.999861 0.0166909 -0.000388946
0.141175 0.117709 0.687599 -0.013871 -0.62421 0.781134
0.221886 0.0911526 0.375698 -0.999706 -0.011223 -0.0215142
0.0345891 0.041145 0.167196 0.998396 0.0394287 0.0406226
0.146681 0.0760664 0.895652 0 0.968625 0.248529
0.139505 0.132379 0.24194 0.0112502 -0.999937 0.000682078
0.133459 0.0371555 0.421993 0 -0.126182 -0.992007
0.112704 0.132378 0.309426 -0.00986373 -0.99989 -0.0111137
0.149734 0.0666856 0.78702 -0.567427 0.823252 -0.0168222
0.111367 0.0127079 0.0240698 0.00148677 -0.999999 -8.66875e-05
0.0804866 0.0577102 0.500506 0.998621 -0.0471859 0.0229963
0.242627 0.050687 0.10727 1 -7.30704e-05 0.000156382
0.0804814 0.053593 0.434018 0.999946 0.00444858 0.00944758
0.167032 0.0310671 0.16618 0 0.999922 0.0125106
0.110133 0.14731 0.163399 -0.896652 0.0141911 -0.442508
0.242646 0.0491443 0.102149 0 0.247967 0.968768
0.136008 0.117704 0.260555 0.0176916 0.999797 -0.00966371
0.135989 0.0457118 0.654764 0.00349807 0.999975 0.00607471
0.0804719 0.0632123 0.273416 0.999894 -0.00675018 -0.0129157
0.221823 0.0619631 0.422367 0.999993 -0.000489573 -0.00376473
0.242633 0.0593115 0.126294 -0.975896 0.210238 0.0585333
0.208908 0.132306 0.338888 -0.189897 -0.0323769 -0.98127
0.165864 0.1177 0.671791 0.000583102 0.999997 -0.00220926
0.267766 0.132221 0.0511628 0 -0.999958 0.00918403
0.186184 0.13229 0.558143 0 -0.96671 0.255873
0.0346241 0.125264 0.142805 0.999947 -0.00656639 -0.00797693
0.242699 0.124453 0.13335 0.999973 0.00735396 0.000634016
0.237514 0.147159 0.0818424 -0.187742 0.0474164 0.981073
0.117162 0.0311073 0.247813 0.00211487 0.999932 -0.0114683
0.0559529 0.0446641 0.176171 0.0133546 0.0359865 0.999263
0.206563 0.132281 0.573378 -0.00569383 -0.999865 0.0154112
0.18726 0.136216 0.0838989 0.999974 -0.0016985 0.00696149
0.311462 0.0125299 0.043353 -0.889789 0.290961 -0.351593
0.120333 0.110407 0.745675 0.0136698 0.000220634 0.999907
0.000196786 0.153947 0.0125272 -0.999939 0.00887446 -0.00656545
0.178877 0.132343 0.393739 0 -0.99998 -0.00637251
0.0861756 0.0695839 0.687599 -0.963867 -0.0633594 0.25874
0.317491 2.5656e-05 0.0156037 -0.0700435 0.91817 0.389947
0.112885 0.0311479 0.405964 0.00226808 0.999996 0.00185466
0.189491 0.126654 0.611495 0.00495095 -0.999912 0.0123188
0.199656 0.0424951 0.688587 0 -0.00722933 -0.999974
0.221792 0.0513077 0.486713 0.99995 -0.000964914 0.00993812
0.192517 0.0310665 0.28138 0 -0.999992 0.0038921
0.104508 0.009197 0.0530332 0.879976 -0.214799 0.423678
0.138186 0.0457282 0.625946 0.00326216 -0.999822 0.018583
0.150144 0.13232 0.211129 0.0153965 0.999809 0.0120774
0.0587385 0.0731408 0.176219 -0.990227 0.139431 -0.0029362
0.0595893 0.0332896 0.182649 0.999976 0.00483012 -0.0048968
0.00243446 0.154196 0.0332509 0.0087952 0.999436 0.032404
0.0368088 0.0314023 0.163252 -0.005563 0.999894 -0.0134881
0.209531 0.0367363 0.643816 0.00281948 -0.999979 0.00576241
0.0804642 0.0954584 0.471941 0.999979 -0.00329419 -0.00556309
0.05224 0.113288 0.176165 0.0649853 -0.0385803 -0.99714
0.0346641 0.108766 0.132806 0.999821 -0.0189283 0.000187235
0.133471 0.044437 0.279819 -0.999782 -0.0120913 0.0169993
0.117295 0.132385 0.519521 0.0116751 0.99993 0.00209043
0.274149 8.30333e-05 0.0195591 -0.00975254 -0.992651 0.120616
0.0957025 0.132367 0.214088 -0.0117011 0.999694 0.0217998
0.318246 0.0748098 0.0137036 0 -0.130581 0.991438
0.106455 0.132415 0.332154 0.00216466 -0.999996 -0.00190616
0.12086 0.114716 0.716138 0.0165408 0.999812 -0.0101244
0.219521 0.00479538 0.0501955 0.0221227 -0.999701 0.0104397
0.0788839 0.164361 0.0195376 -0.298883 -0.937038 -0.180636
0.133461 0.132366 0.0889141 -0.321668 -0.895618 -0.307244
0.170214 0.0457092 0.494085 0.796154 0.514498 -0.318481
0.161743 0.117688 0.63351 -0.0172907 -0.999651 -0.0199658
0.1326 0.110438 0.745671 -0.308385 -0.152634 0.938936
0.14517 0.045725 0.402422 0.0036934 0.999901 0.0135846
0.203707 0.132273 0.416526 -0.00559968 0.99998 -0.00290988
0.152567 0.00265972 0.0136885 -0.780635 0.62496 0.00591922
0.0856493 0.132379 0.447709 0.000203449 0.999993 -0.00371631
0.162059 0.117722 0.427454 -0.546569 -0.0490367 0.835977
0.088192 0.0176952 0.062868 -0.0268246 -0.999609 -0.00784854
0.242741 0.144307 0.207886 -0.999851 0.00676131 -0.0159009
0.1743 0.132355 0.304864 -0.46894 -0.022882 -0.882934
0.242705 0.1104 0.0661385 -0.991862 -0.0773404 0.101138
0.311673 0.0798258 0.011003 0.998795 0.00477681 0.0488424
0.0346281 0.0778136 0.165477 0.998799 -0.0133268 -0.047155
0.171456 0.117943 0.396402 -0.110803 0.971705 -0.208597
0.153903 0.0761737 0.890221 -0.344821 0.0598045 -0.936761
0.204134 0.0367248 0.676831 -0.0093269 0.999895 -0.0110788
0.0831261 0.0311283 0.295989 0.018884 0.999807 -0.00550051
0.193272 0.0310279 0.327708 0.00358472 0.999991 0.00223562
0.115729 0.0311128 0.250496 -0.00737842 -0.99991 -0.0112347
0.107482 0.0311176 0.437792 -0.0571877 0.99809 0.0233642
0.200058 0.0310594 0.414451 0.120833 -0.989617 0.0778267
0.277607 0.0737507 0.0485974 0.0157337 0.00609783 -0.999858
0.186921 0.0310867 0.396962 -0.00302211 -0.999993 0.00234919
0.119203 0.114698 0.699939 -0.0158072 -0.999789 -0.0130879
0.221812 0.0618451 0.579057 -0.996724 -0.0352863 -0.07277
0.243318 0.00577038 0.0137411 0.0310606 -0.0137366 -0.999423
0.115391 0.00582835 0.0195882 0.286273 0.774761 -0.563731
0.10877 0.031131 0.272331 0.0154512 -0.999868 0.00511394
0.0346317 0.10167 0.132292 -0.999706 0.0212616 -0.0116443
0.158874 0.132323 0.0649467 -0.0146325 -0.999632 -0.0228602
0.0804854 0.124615 0.449128 0.99995 0.00643606 -0.00765918
0.126177 0.132373 0.227715 0.00681082 0.999977 0.000346975
0.139092 0.0725169 0.815038 -0.700216 -0.713886 -0.00800685
0.107895 0.132376 0.337575 -0.0111896 0.999602 0.0258953
0.0861667 0.0551244 0.660089 -0.999915 -0.0130316 0.000702657
0.131806 0.129053 0.284288 0 0.129602 0.991566
0.131811 0.127985 0.378023 -0.999558 0.00685892 -0.0289278
0.221806 0.0368739 0.563264 0 0.718175 -0.695862
0.155739 0.0310637 0.135474 -0.101625 0.994051 0.0391711
0.18765 0.031035 0.351196 -0.0543057 0.998282 0.021999
0.075845 0.0537747 0.262082 -0.0224533 0.0132944 -0.99966
0.144908 0.132324 0.243405 0 0.0765654 0.997065
0.227921 0.119256 0.239166 -0.0119883 0.999928 0.000929348
0.204104 0.0175689 0.0542797 -0.00952244 -0.999917 -0.00865502
6.10226e-05 0.00388341 0.019245 -0.22094 -0.586126 0.779514
0.235198 0.147148 0.101436 -0.00984739 0.999951 0.000955121
0.217082 0.12028 0.608309 -0.970958 0.0538897 -0.233104
0.080501 0.123113 0.331872 -1 -0.000208318 -0.000958483
0.159302 0.0457268 0.318031 -0.0004475 -0.999954 0.0095793
0.221853 0.0993379 0.394784 0 -0.934132 0.356928
0.19453 0.165298 0.0195454 -0.993418 -0.114463 0.00442983
0.0752805 0.0129663 0.053923 0.107037 0.845426 0.523257
0.204325 0.132271 0.215662 0.0519999 -0.985523 0.161369
0.10279 0.0140839 0.0526459 -0.587772 -0.542003 -0.60063
0.0804646 0.0709064 0.527063 -0.999438 -0.0247569 -0.0226037
0.11676 0.146513 0.177487 0.63639 0.596194 -0.489448
0.0718511 0.0141203 0.050463 0.18534 -0.956408 -0.225684
0.303497 0.156297 0.0137284 0.00669993 -0.0109672 -0.999917
0.0346231 0.0794948 0.117753 0.99994 -0.0099447 -0.00454815
0.217425 0.031013 0.302965 -0.0191419 0.999771 0.0095676
0.110805 0.00289205 0.0195455 0.0127633 -0.0345557 -0.999321
0.311665 0.115439 0.047975 -0.220211 0.0243148 -0.975149
0.221854 0.068662 0.436303 -0.999887 -0.00553235 -0.0139691
0.178018 0.13231 0.238451 -0.954163 0.00281761 0.299275
0.0804406 0.0609477 0.46906 -0.999995 -0.00318641 0.000861541
0.0913732 0.0176455 0.120107 -0.642145 -0.0011469 0.766583
0.0596115 0.0620104 0.232396 -0.998255 0.053032 -0.0259815
0.259183 0.132248 0.14025 0.0206639 0.999784 -0.00207229
0.135036 0.0769935 0.780763 -0.553287 0.0385631 0.832098
0.209289 0.0366983 0.610687 -0.992625 -0.00189245 0.12121
0.187169 0.0206565 0.177904 0.999995 0.00227065 -0.00230062
0.080424 0.0497389 0.592611 0.999944 0.00475717 -0.00944144
0.0345762 0.0665512 0.167755 -0.999532 0.00563259 0.0300846
0.124008 0.154079 0.0270942 -0.0156742 -0.999712 -0.0181694
0.0371917 0.154142 0.0234472 -0.00854037 -0.999959 -0.00295171
0.160875 0.0742607 0.819575 0.731061 -0.677203 -0.0833389
0.171438 0.11857 0.545492 -0.398248 0.840032 -0.368437
0.214287 0.132287 0.541158 -0.113483 0.0700212 0.991069
0.131813 0.124174 0.563535 -0.999502 0.00392052 -0.0313011
0.153784 0.117698 0.560385 0.0317577 0.999448 -0.0097174
0.0596988 0.138267 0.145931 -0.999563 -0.00109022 0.0295387
0.24274 0.124806 0.093126 -0.999935 0.00216604 -0.011171
0.132585 0.0126598 0.0067815 -0.66177 0.00454319 0.749693
0.113355 0.132359 0.565339 0.0885099 -0.970307 0.225099
0.124433 0.132379 0.194503 -0.01429 0.99983 0.0116328
0.128677 0.0388533 0.682589 -0.999996 -0.00269196 -0.00104449
0.0596501 0.0791191 0.243766 0.999965 0.00323979 -0.00772942
0.0838652 0.132424 0.582504 0.0448496 -0.998684 0.02486
0.242687 0.0946006 0.113141 0.999783 0.000217389 -0.0208382
0.153887 0.117719 0.439731 -0.0262718 -0.999561 -0.0136841
0.012956 0.0127964 0.0227736 -0.941062 -0.00237276 -0.338226
0.160057 0.154002 0.00210377 -0.231184 -0.00321994 0.972905
0.0473762 0.154143 0.0483403 -0.00867272 0.999953 0.00438328
0.264243 0.12682 0.174461 -0.0261193 -0.0066625 0.999637
0.170571 0.0405799 0.286742 -0.99986 0.0167302 0.000939352
0.216355 0.0538035 0.624841 0.999995 0.0025495 0.00163673
0.266257 0.0309903 0.0892701 0 -0.999993 -0.00378936
0.151418 0.0311002 0.208025 0.271994 -0.927707 0.255692
0.152253 0.093109 0.7816 -0.546305 -0.764429 -0.342343
0.221901 0.113054 0.468698 0 -0.995363 0.0961898
0.143619 0.0694623 0.879843 -0.217697 -0.416355 0.882755
0.0805006 0.131915 0.242318 -0.444941 0.887348 -0.120997
0.242736 0.117976 0.186166 0 -0.281965 -0.959425
0.0534995 0.0327783 0.176218 -0.0295237 -0.00511484 0.999551
0.221844 0.0466551 0.406855 1 0 0
0.316973 0.0946202 0.0137017 -0.924396 -0.381433 0.000463409
0.0435406 0.156909 0.0136909 0.201 -0.0720243 -0.97694
0.0990564 0.0677387 0.728005 0.99998 0.00528581 -0.00339087
0.157022 0.0311075 0.111722 0.0108661 -0.99969 0.0224197
0.185166 0.0367389 0.660808 -0.0133877 -0.999909 -0.00156839
0.116725 0.141696 0.0534878 -0.999324 0.0361578 0.00662947
0.292458 0.077898 0.0486189 0.00151146 -0.0148036 0.999889
0.242682 0.0599198 0.124926 0.99979 0.0177544 0.0102088
0.135949 0.0761369 0.845518 0 0.902238 0.431238
0.153391 0.11772 0.576287 0.00695332 0.999858 -0.0153266
0.23104 0.147191 0.0812612 -0.0113236 0.999838 -0.0140143
0.0590099 0.012722 0.0410432 0.0171983 -0.999676 0.0187567
0.15625 0.0310718 0.25052 0.00124031 -0.999992 -0.00370618
0.0981747 0.147259 0.165356 0.00521494 -0.999959 0.00737594
0.0861562 0.041728 0.642797 0 0.685492 -0.728081
0.320111 0.147192 0.0195803 0 0.00686444 0.999976
0.13958 0.0457636 0.448297 0.0100974 0.999939 -0.00447939
0.221875 0.11072 0.282207 0.999449 -0.0163425 -0.028889
0.138845 0.114721 0.723183 -0.00970854 -0.999784 -0.0183666
0.180219 0.0310685 0.223042 0.0058121 -0.999882 0.0142257
0.163915 0.166123 0.0175915 0.0509591 -0.996113 -0.0718423
0.131826 0.11987 0.321524 0.799353 0.320439 -0.508285
0.159529 0.0456912 0.611099 -0.00430131 -0.999991 0.000613432
0.187193 0.019825 0.139673 0.596074 0.696561 0.399373
0.271064 0.0434408 0.147441 0.999873 -0.000513836 0.0159018
0.205076 0.0823421 0.688545 0.000691105 -0.0223234 0.999751
0.180435 0.0310398 0.591122 -0.00768705 -0.999873 -0.013972
0.1156 0.132355 0.345971 -0.873147 0.00859115 0.487381
0.314772 0.101742 0.0206479 0.0580486 0.990736 0.122773
0.175001 0.125898 0.608339 -0.996203 -0.0733456 0.0469054
0.203674 0.0367163 0.630067 0.0210706 -0.999657 0.0155458
0.0944905 0.0908792 0.688587 -0.0585582 -0.0946051 0.993791
0.17508 0.106159 0.751087 0.00177163 0.999984 0.00542628
0.0713456 0.0141352 0.0211147 0.703074 0.639627 -0.310749
0.0346394 0.0771238 0.165544 -0.997166 -0.00907761 0.07469
0.0710134 0.044593 0.257539 -0.0155212 -0.999693 -0.0193025
0.12718 0.132355 0.253345 0 0.999995 -0.00330848
0.0182269 0.0127739 0.0115098 -0.0059429 0.999801 0.0190265
0.24268 0.0434877 0.198085 0.999932 0.00681987 -0.00941411
0.0804925 0.0935585 0.277924 0.997904 0.00592244 -0.0644439
0.164772 0.114682 0.712817 0.0277133 -0.998898 0.0378879
0.217333 0.0310217 0.492871 -0.00112525 0.99983 0.0184148
0.0804638 0.0847038 0.515005 -0.989898 -0.0400367 0.136012
0.144126 0.0457343 0.382436 -0.00258308 0.999996 0.00113988
0.0749474 0.143602 0.211032 0.0176204 -0.00881208 0.999806
0.242662 0.0831162 0.210068 -0.99995 -0.00148598 0.00988228
0.182221 0.132336 0.354376 0.0160018 0.999836 -0.00849426
0.294442 0.152966 0.0485948 0 0.920972 0.389628
0.212483 0.0367201 0.679351 -0.0070603 -0.999956 -0.00625772
0.0512384 0.132417 0.137784 -0.0151315 0.999853 0.00811728
0.115762 0.132406 0.2515 0.00481098 -0.999953 0.00838451
0.257817 0.0671094 0.174417 0.0799984 -0.0567611 -0.995178
0.115994 0.147244 0.0827065 -0.384848 -0.751254 -0.536199
0.0598234 0.119417 0.223539 0.954413 -0.297136 -0.0283968
0.31306 0.128664 0.0137129 0.542942 -0.290847 -0.787796
0.0596194 0.0205626 0.131712 1 0.00046448 0.000223166
0.221799 0.034216 0.465751 0.999695 0.0136013 0.0206124
0.182623 0.0310908 0.589726 -0.00393549 0.999799 0.0196468
0.0934523 0.0176449 0.101722 0.00280306 -0.999995 -0.00170496
0.116347 0.0355259 0.608345 -0.266204 0.771193 -0.578271
0.0345816 0.063144 0.154858 0 -0.0917911 0.995778
0.167329 0.0457258 0.465912 0.0118017 -0.99992 0.00461824
0.31519 0.00735044 0.0136832 0.0132692 0.015457 0.999793
0.170353 0.117706 0.670843 0 0.999046 0.0436769
0.110012 0.0627989 0.756758 -0.386691 -0.0298772 0.921725
0.211593 0.0175675 0.082749 -0.623913 0.78108 0.0254253
0.24273 0.114501 0.115771 0.999995 -0.00290655 0.000873965
0.176353 0.132344 0.185785 0.0117369 -0.999927 0.00304742
0.22188 0.109942 0.551427 -0.428808 0.878704 0.209771
0.118352 0.132401 0.304361 -0.00476378 -0.99994 -0.00984623
0.141307 0.106207 0.748216 -0.00349616 0.998811 0.0486332
0.20367 0.147188 0.0684398 -0.00331173 -0.999969 0.00712565
0.150345 0.101846 0.757924 -0.153709 0.925852 0.345212
0.11675 0.146491 0.0666777 -0.193747 -0.980618 -0.0291735
0.17592 0.0928702 0.765474 0 -0.253607 -0.967307
0.216379 0.0626413 0.66496 -0.999328 0.00912038 -0.0354958
0.271093 0.0904614 0.100446 -0.99988 0.0101422 -0.0116912
5.23293e-05 0.0472246 0.0210319 0.999995 -0.000657986 -0.00308738
0.151605 0.154026 0.0418335 -0.795192 0.0362991 0.60527
0.0542894 0.102292 0.176209 -0.792223 -0.609986 0.0172805
0.13964 0.0457563 0.506839 -0.0105261 -0.999786 0.0177883
0.0805311 0.10535 0.373005 0.999927 -0.0067007 0.0100751
0.202487 0.0611073 0.702826 0.999954 0.00328685 -0.00896663
0.0596881 0.116814 0.180359 -0.999954 -0.00784127 -0.00560133
0.151077 0.0344731 0.257133 0 0.00290689 -0.999996
0.271073 0.0450553 0.0517804 0.906826 -0.262706 -0.329624
0.0804533 0.0631377 0.374785 -0.999949 -0.00722957 0.0070395
0.221827 0.0726885 0.300666 0.999794 0.0148991 -0.0137625
0.2219 0.120362 0.463066 0.999954 -0.00954507 -0.000286527
0.222785 0.0175711 0.181348 -0.00135922 0.999929 0.0118484
0.024288 0.0890981 0.0486017 -0.0189241 -0.0105295 0.999766
0.170537 0.0350764 0.607343 0.571702 0.487582 -0.659864
0.221893 0.112216 0.531335 0.999205 -0.0208758 -0.0339645
0.0346645 0.112087 0.115751 0 -0.672686 -0.739928
0.23669 0.0175041 0.0818798 0 -0.999673 -0.0255911
0.0805147 0.107511 0.364297 -0.999728 -0.0010955 0.0232991
0.0947443 0.0343166 0.608319 -0.00714003 0.0110536 -0.999913
0.158357 0.0765252 0.882843 -0.967441 0.2429 -0.071119
0.0880694 0.132422 0.375839 -0.00717969 0.999461 0.0320297
0.133484 0.0420177 0.411364 -0.999972 -0.00118841 0.00732376
0.311703 0.111088 0.00961864 0.999596 0.0284164 -0.000736766
0.180537 0.126634 0.679652 0.892976 0.244101 0.378164
0.276835 0.105246 0.0485829 -0.0774905 -0.0430263 0.996064
0.0804765 0.0877571 0.445616 -0.999776 -0.0206142 -0.00488111
0.0804335 0.0662595 0.313911 0.999808 -0.0185646 -0.00630505
0.171442 0.124133 0.285259 0.999998 5.66114e-05 0.00224344
0.0805 0.092648 0.558363 -0.960342 -0.0215532 -0.277991
0.0160363 0.114507 0.0486328 0.0111319 -3.04431e-05 0.999938
0.110433 0.105375 0.748412 -0.123491 0.882553 -0.453708
0.147567 0.132341 0.247195 -0.00403664 0.999911 0.0126877
0.0823881 0.0311269 0.395743 -0.00470278 -0.999939 0.0100421
0.175703 0.048716 0.730652 -0.0402498 -0.999033 -0.0176991
0.116727 0.138652 0.183173 0.999999 -0.00141358 -0.000835738
0.0804501 0.0683561 0.435008 0 0.694027 0.719949
0.311667 0.060184 0.00370501 0 0.395554 0.918443
0.251479 0.0126042 0.0116283 -0.00469222 0.936918 0.349518
0.159028 0.117714 0.289556 -0.977859 -0.00686336 0.20915
0.0805113 0.120491 0.226986 -0.584913 0.810262 -0.0367667
0.0597186 0.143845 0.0633394 0.999856 0.00747352 0.0152333
0.118807 0.0311306 0.235083 0.00878707 0.99955 -0.028694
0.11938 0.0311106 0.440636 0 0.994747 0.102363
0.226168 0.0175687 0.20507 0 -0.999771 -0.0214117
0.134171 0.0457496 0.544754 -0.756854 -0.0355124 0.652619
0.0840605 0.0311322 0.467005 0 0.999827 0.0186114
0.133468 0.0414096 0.341817 0.999186 0.0117491 0.0385907
0.178163 0.0310556 0.387428 0.00120957 -0.999953 -0.00959084
0.271075 0.0685018 0.134462 0.999959 -0.00640972 -0.00647563
0.242698 0.130629 0.147361 -0.999867 0.0158707 -0.00384519
0.113708 0.126709 0.666067 0.0187552 0.999646 -0.0188556
0.0805272 0.119241 0.346216 0.999972 -0.00281137 -0.00692638
0.239435 0.119202 0.257836 -0.00201284 0.999916 -0.0127849
0.241546 0.0175099 0.125181 -0.150523 -0.0983214 -0.983705
0.191203 0.112593 0.745665 -0.247007 0.184242 0.951337
0.195433 0.147206 0.0972121 0.000558586 0.999932 -0.0116189
0.0990394 0.0609701 0.731571 0.999982 0.00603516 0.00053988
0.0345812 0.0771537 0.133781 0 -0.673571 -0.739123
0.182071 0.132326 0.274408 -0.00553403 -0.999935 -0.0100026
0.268661 0.0309811 0.142528 0.0183429 -0.999827 0.00310608
0.0496805 0.0314057 0.075647 0.0190643 0.999812 -0.00367011
0.221838 0.0571627 0.511603 -0.999906 -0.0131038 -0.00397605
0.193788 0.147185 0.145111 -0.988161 -0.00231109 -0.153406
0.141982 0.0457213 0.333094 0 0.999989 0.0047207
0.157931 0.0310819 0.179755 -0.0110252 0.999084 0.0413425
0.22183 0.0960845 0.5133 0.99999 -0.00400584 -0.0020603
0.221902 0.130876 0.231768 0.995437 0.0775484 0.0555939
0.170587 0.0451458 0.339442 0 -0.967792 -0.25175
0.190084 0.0175608 0.184639 0.144264 -0.988842 0.0371451
0.140625 0.0457219 0.395232 -0.0324089 -0.999299 -0.0187654
0.181825 0.0310899 0.0503636 -0.0267587 0.999465 0.0188099
0.22601 0.00878748 0.0539252 -0.0032357 0.00136924 0.999994
0.0862115 0.103191 0.611095 -0.998116 -0.00695101 0.0609656
0.0235379 0.085188 0.048613 -0.340897 0.107454 -0.93394
0.186195 0.132311 0.570277 -0.00284504 -0.999905 -0.0134571
0.133475 0.0372779 0.590546 0.999953 -0.00961213 0.00156997
0.080482 0.117012 0.298244 0.999704 -0.00604846 -0.0235878
0.170595 0.0412569 0.494293 0.99997 0.00649309 -0.00428004
0.153324 0.0675232 0.793875 -0.486741 0.873535 -0.00443169
0.301859 0.00151179 0.0195394 0.18411 -0.939396 0.289203
0.180995 0.140812 0.0485825 -0.00521736 0.0487915 0.998795
0.185649 0.106108 0.748974 0.0621444 0.997105 -0.0438257
0.210064 0.0310588 0.274546 0.00737205 -0.999324 0.0360116
0.184418 0.132335 0.352184 -0.134533 -0.990039 -0.0415135
0.126618 0.101855 0.762235 0.00264351 0.999995 -0.00168121
0.166032 0.117687 0.549686 -0.000187579 -0.999888 0.0149709
0.20145 0.0310675 0.249516 0 -0.999868 0.0162289
0.136394 0.117693 0.64206 0.00598725 -0.999982 -0.000741281
0.141795 0.0892951 0.77165 0.70097 -0.713152 -0.00748957
0.0346119 0.0624951 0.120392 0.99997 0.00253575 0.00737037
0.0737982 0.147298 0.128203 0.00913247 -0.999394 0.0335828
0.221066 0.147164 0.187829 -0.0166319 -0.999861 -0.000984406
0.0596784 0.11159 0.194411 -0.999758 0.0193529 -0.0105077
0.15824 0.0831871 0.886023 0.729386 0.0921822 -0.677864
0.141511 0.132338 0.248128 -0.00210048 -0.999996 -0.00195346
0.179773 0.0126648 0.00353476 -0.00324481 -0.999987 -0.00391383
0.0804804 0.0850198 0.467288 -0.999996 -0.00220459 0.00163942
0.0804169 0.0477386 0.401275 0.999971 0.00407507 0.0065148
0.221897 0.104512 0.399477 -0.999196 -0.0355477 -0.0185556
0.190019 0.126666 0.670817 -0.0058868 0.998954 0.0453365
0.221836 0.0884046 0.438598 0.999651 0.0242124 0.0105472
0.0861394 0.0655582 0.630764 0.999979 -0.00528809 -0.00381048
0.149391 0.0816772 0.994119 -0.309678 -0.946893 0.0865679
0.242633 0.0330319 0.13581 -0.999928 0.0110074 0.00489415
0.0620732 0.054929 0.261998 0 -0.0205234 0.999789
0.0346479 0.104091 0.117951 0.999998 -0.00142274 0.0015384
0.221803 0.0369862 0.474955 0.999805 -0.0123011 0.0154275
0.0783178 0.0176974 0.188344 -0.00383793 0.999993 -0.000224229
0.218959 0.0310582 0.498069 0.0189165 0.999552 -0.0232128
0.148347 0.0668276 0.779769 0.0127651 -0.99778 -0.0653669
0.194652 0.132306 0.418041 -0.00520619 -0.999889 -0.0139551
0.131833 0.121584 0.519977 0.999982 -0.00111089 0.00587332
0.261291 0.031018 0.159702 -0.117532 -0.0178471 0.992909
0.14076 0.117711 0.42211 -0.710731 -0.0432968 -0.70213
0.242682 0.0559701 0.170784 0.999963 0.00416286 0.00747723
0.212067 0.0122695 0.0136968 0.227991 0.661362 0.714577
0.242621 0.0362649 0.178301 0.999801 -0.00572648 0.0191217
0.173456 0.132353 0.09806 0 -0.805939 0.591999
0.121345 0.132378 0.478723 0.0217977 0.999746 0.00577643
0.271049 0.0465719 0.13848 -0.999953 -0.00274268 0.00934885
0.0595804 0.0349974 0.19823 0.999984 -0.00564277 0.00026321
0.219661 0.13228 0.582146 -0.230936 -0.930185 -0.285349
0.190723 0.140115 0.211001 -0.00539059 0.00980467 -0.999937
0.121934 0.0216944 0.0486247 0.00452285 0.00520214 -0.999976
0.147095 0.04575 0.518796 0.0376025 0.999283 -0.00452777
0.175051 0.157944 0.0137015 -0.00911191 0.00461561 -0.999948
0.147176 0.117718 0.660509 -0.0123053 -0.9999 -0.00704787
0.152088 0.0818281 0.984941 -0.779902 -0.578192 0.239681
0.175892 0.0367484 0.685799 0.95583 0.146778 -0.254648
0.116751 0.126674 0.649478 -0.0209389 -0.999685 -0.0138554
0.221813 0.0345859 0.257741 0.713398 -0.565523 -0.413819
0.0804458 0.0311681 0.442036 0.337724 0.934349 -0.113727
0.0723921 0.0182938 0.211019 -0.903077 -0.191159 -0.384591
0.121039 0.0128681 0.048589 0.556527 0.0400967 -0.829862
0.128395 0.114696 0.730943 -0.00799286 -0.999907 0.0110523
0.0336624 0.166222 0.0142741 0.399169 -0.851438 0.340172
0.311721 0.130321 0.0123187 0.804325 0.195437 -0.561129
0.0805337 0.10975 0.537031 0.999996 -0.00183301 0.00223651
0.0841836 0.0311734 0.413774 -0.000664499 -0.999995 -0.00305575
0.213022 0.126997 0.608331 0.0438397 0.12394 0.991321
0.118534 0.132391 0.0658069 0.71263 0.665666 0.221467
0.0596339 0.0735079 0.243896 0.99997 0.00351407 0.00687923
0.152589 0.132495 0.0486259 0 0.943913 0.330195
0.187295 0.141583 0.18813 0.999997 -0.00180277 0.00159759
0.319888 0.0698778 0.0401496 0.999978 -0.00560476 -0.00346926
0.0563891 0.0313863 0.164322 0.00571894 -0.999901 0.0128414
0.086143 0.0378695 0.609432 0.428823 0.881571 0.197339
0.18729 0.143137 0.187567 -0.999932 -0.0114576 -0.00207166
0.189843 0.0310405 0.39304 -0.0145875 0.999645 0.0223076
0.116736 0.143688 0.141764 0.99997 0.00698315 0.00344282
0.059725 0.138842 0.193993 -0.999655 0.0161036 0.0207572
0.0950408 0.0311586 0.497081 -0.00559189 0.999912 0.0120724
0.137241 0.117715 0.431903 -0.627735 -0.0113705 0.778344
0.212649 0.132281 0.495586 0.00636551 -0.999971 0.00418112
0.221849 0.0814069 0.448707 0 0.999047 0.0436582
0.0346085 0.0539367 0.157067 -0.999889 0.0110728 -0.00992835
0.105971 0.132402 0.296636 0.00562168 -0.999924 0.0109533
0.221883 0.102934 0.266103 0.999994 0.000434455 0.0033359
0.254297 0.0684525 0.174463 -0.00781104 0.00571343 0.999953
0.165527 0.132316 0.0607213 -0.0057643 -0.999982 -0.0017754
0.0368783 0.031417 0.0589983 -0.518015 0.179361 -0.836355
0.151993 0.0487789 0.711245 0 -0.999962 -0.00876654
0.219035 0.153827 0.0485906 0.00743283 -0.00860134 -0.999935
0.153926 0.117681 0.567761 -0.00985992 -0.99995 0.00143692
0.22849 0.147169 0.0684261 0.0190831 -0.999541 0.0235196
0.262534 0.153922 0.0378363 -0.00828949 0.999952 0.00519111
0.221905 0.123836 0.454889 0.999982 -0.00547531 -0.00251506
0.204692 0.0175677 0.209345 -0.782683 0.145532 0.605167
0.218069 0.055165 0.608329 0.0169572 0.0027389 0.999852
0.105305 0.0311465 0.506882 -0.000769424 -0.999999 -0.00148775
0.158679 0.0720717 0.84886 -0.712316 0.701806 0.00863276
0.306091 0.0125374 0.024508 0.00188173 -0.999994 0.003
0.196114 0.0983816 0.747172 0.818179 -0.0134609 0.574807
0.131837 0.124652 0.364586 0.999597 0.00606492 -0.0277466
0.284185 0.0718405 0.0486213 -0.000172809 0.0045033 0.99999
0.128736 0.122225 0.679272 0.999999 0.000999971 0.000441203
0.203281 0.0310617 0.398568 -0.0346777 0.989729 0.138687
0.000130723 0.13755 0.0105125 0 -0.473979 -0.880536
0.0990334 0.0678086 0.720942 0.999979 -0.00630812 -0.00171972
0.101679 0.031119 0.467167 -0.00578242 -0.999955 0.00755649
0.221838 0.0580405 0.411116 -0.999923 0.0110267 0.00577188
0.172778 0.0130133 0.0485768 -0.152055 0.395677 -0.905715
0.0804876 0.0677458 0.519549 0.999897 0.0127537 0.00653424
0.216355 0.0703059 0.662659 0.999998 0.000858769 -0.00183632
0.0346404 0.0858382 0.162639 0.999978 -0.00554218 0.0037583
0.080548 0.130257 0.215624 0.773528 -0.624503 0.107933
0.0596161 0.0788211 0.200532 0.999985 -0.00440467 0.00329038
0.0804987 0.109528 0.390107 0.999827 0.0184928 -0.00221258
0.0804668 0.0984023 0.40336 0.999756 0.0220175 -0.00163871
0.0739156 0.156025 0.0485926 -0.715755 0.698332 -0.00515904
0.162022 0.045728 0.394135 -0.998792 -0.000101875 -0.0491484
0.0805222 0.120936 0.315281 0.999909 0.000704661 0.0134904
0.08052 0.118416 0.551678 0.999982 0.00369079 0.00467227
0.0596699 0.0802135 0.211369 0.999693 -0.0111666 0.0221275
0.216352 0.0708589 0.68524 0.999945 0.00487112 -0.00933419
0.0804494 0.0814291 0.467561 -0.999317 -0.0362424 -0.00725393
0.132195 0.0457654 0.632213 0.00136411 -0.999915 0.0129581
0.204445 0.132313 0.407459 0.000377719 0.999865 -0.0164227
0.126426 0.132363 0.509627 -0.12642 -0.982678 0.135507
0.0409167 0.0127838 0.041543 0.00106814 -0.999981 0.00610719
0.0805284 0.106536 0.315861 0.999999 -0.000451554 -0.00109787
0.221858 0.109128 0.362303 -0.978031 0.208286 0.00846317
0.148345 0.0457056 0.307363 0.000214331 0.999976 0.00700364
0.112072 0.147294 0.117312 -0.0089495 0.99996 0.000842538
0.103543 0.0311122 0.255898 0 0.999996 0.00300472
0.221824 0.0662365 0.496122 -0.999817 -0.0119713 0.014922
0.105806 0.155833 0.0338725 -0.989069 -0.12044 0.0850663
0.240846 0.0175069 0.0717553 -0.0101833 0.999849 0.0141108
0.0596685 0.0932286 0.202609 0.999896 0.00111073 -0.0143495
0.216364 0.0392582 0.651127 0 0.273266 -0.961938
0.0804628 0.0419707 0.492867 -0.999727 -0.0150647 0.0178763
0.263959 0.0638778 0.174469 -0.00199021 0.00492615 0.999986
0.242158 0.14715 0.185539 0.923873 0.382666 0.0049571
0.160958 0.11769 0.3369 2.24189e-05 0.999985 -0.00553726
0.205577 0.132327 0.538716 0.00119104 -0.999998 0.00176778
0.220319 0.0310433 0.279061 0.66784 -0.742762 -0.0478981
0.271142 0.112946 0.137936 -0.999796 0.00681124 -0.0190276
0.152951 0.117693 0.623823 -0.00119022 -0.999998 0.00167473
0.17056 0.0443249 0.347018 -0.988595 -0.114785 0.097495
0.216764 0.13228 0.216705 -0.00165258 0.999948 -0.0100771
0.0346188 0.0719238 0.0984398 0 -0.924178 0.381963
0.0926254 0.0176536 0.173938 -0.00330676 0.999906 0.0133118
0.148261 0.0310807 0.186835 -0.0578111 -0.997592 -0.0383194
0.242688 0.105241 0.125969 0 -0.995978 0.0895982
0.131855 0.122934 0.496162 0.999969 -0.00296411 0.00732004
0.094617 0.031172 0.462385 -0.684062 0.0435146 0.728125
0.134608 0.045769 0.284942 -0.00189881 -0.999983 -0.00550434
0.177076 0.11469 0.722294 -0.0106772 0.999924 0.00612413
0.157759 0.117694 0.681359 -0.845238 0.00314658 -0.534381
0.242697 0.0844668 0.0506711 -0.994051 -0.0501243 -0.0966948
0.216377 0.07879 0.645307 0.999972 0.00537097 0.0052604
0.0680523 0.00901396 0.0195289 0.0274114 -0.0133217 -0.999536
0.242974 0.153987 0.027471 0 0.74706 0.664757
0.271079 0.100629 0.147771 -0.999689 0.00333943 0.0247344
0.242695 0.0686699 0.0602384 -0.999537 0.0202873 0.022694
0.30663 0.0590264 0.048578 0.00685665 0.00445857 -0.999967
0.170542 0.0376719 0.353309 0.99985 -0.0153776 0.00802668
0.126715 0.0310944 0.271216 -0.0107213 -0.999942 0.00102166
0.0804616 0.0839094 0.526374 -0.999926 0.00167417 -0.0120933
0.0961728 0.132392 0.471274 -0.00701814 -0.999925 0.0100104
0.080423 0.0519002 0.436175 0.999957 -0.00925241 -9.81987e-05
0.311698 0.151366 0.0100343 0.917947 0.37379 -0.132867
0.0814905 0.000250919 0.0159413 -0.488838 0.753109 0.440301
0.178875 0.0310415 0.571541 -0.00614496 0.999945 0.00855713
0.22186 0.105414 0.399758 0.999931 0.00884799 0.00767409
0.276065 0.153918 0.0390243 0 0.999959 0.00901436
0.106725 0.00609665 0.021899 0.998782 0.0448885 -0.0204728
0.164608 0.117681 0.348137 0.0573272 -0.993745 0.095833
0.0619765 0.0176831 0.156568 0 -0.999998 0.00190845
0.221885 0.09177 0.395412 0.999879 -0.00960935 -0.0122271
0.0804846 0.0910568 0.54795 0.999998 0.00147632 -0.00133953
0.0346006 0.0345374 0.0662851 0.999982 -0.00306655 0.00518364
0.0861814 0.112703 0.658291 -0.999963 -0.00325992 0.00796024
0.192733 0.132311 0.333825 -0.00335728 0.999893 0.0142494
0.111272 0.106172 0.749734 -0.113825 0.880769 -0.459663
0.0290592 0.0785124 0.0486324 -0.0110606 0.00596356 -0.999921
0.0869825 0.0176643 0.111668 0.00189225 0.999989 0.004377
0.0809592 0.014111 0.0195761 0.373036 0.913749 -0.160954
0.0346079 0.0558222 0.126522 -0.999923 0.00695069 -0.0103311
0.221835 0.0734 0.313867 0.999463 -0.0205639 -0.0255082
0.311702 0.147953 0.0239666 0.999924 0.0122883 -0.000267627
0.10654 0.0311592 0.34226 -0.0102484 0.99994 -0.00388679
0.195065 0.147229 0.201126 -0.0423635 0.998964 0.016611
0.221797 0.0502262 0.479715 0.999958 0.00625764 -0.00674878
0.32356 0.123913 0.0137738 0.48451 -0.232522 -0.843317
0.00538855 0.154184 0.00275083 -0.0108127 0.999794 0.0171836
0.0942685 0.147296 0.0506822 0.0593942 -0.965806 -0.252369
0.112652 0.0368007 0.638274 0.00353281 0.999984 0.00432514
0.231553 0.0444302 0.241249 -0.389129 0.0304632 0.92068
0.198356 0.0310619 0.378363 0.129556 0.833989 -0.536356
0.145146 0.0457624 0.26899 -0.00338034 0.998271 -0.0586846
0.22189 0.105884 0.268762 0.999994 0.00349769 -0.000286375
0.271111 0.0982689 0.0954481 -0.999957 0.00203593 -0.00905856
0.0319892 0.0127448 0.00462938 0.00480927 0.999946 -0.00921048
0.110959 0.0126743 0.046188 -0.986767 7.65845e-05 -0.162145
0.0597254 0.140451 0.118939 -0.999159 -0.0404327 -0.00686735
0.0698984 0.00691022 0.051937 0.897469 0.300366 -0.323002
0.0946558 0.15585 0.0137217 0.00369515 0.0693074 -0.997589
0.059663 0.0863437 0.240447 -0.999985 0.000254904 0.00542765
0.221897 0.128741 0.230853 0.999969 -0.00679755 -0.00400048
0.221841 0.0764581 0.384145 -0.999991 0.00258917 -0.00342121
0.0804393 0.0585373 0.330055 -0.98821 0.151624 -0.0212644
0.200238 0.132327 0.217321 -0.0184817 0.999387 0.0297347
0.221145 0.0310542 0.474286 0.84368 -0.453097 -0.287936
0.0346144 0.0595588 0.0635008 -0.999895 0.0114846 -0.00881558
0.0626727 0.147344 0.195699 0.00434978 -0.999978 0.00509641
0.140193 0.114694 0.730456 -0.00344176 0.999993 0.00173013
0.0238419 0.0128069 0.0236165 -0.00102709 -0.999963 -0.00853872
0.0804757 0.0435699 0.312592 0.996692 -0.0780463 0.0226629
0.034619 0.0983022 0.112806 0.999945 0.0101514 0.00266618
0.221832 0.07869 0.472696 -0.999528 -0.000722076 -0.0307294
0.171467 0.119279 0.310376 -0.908308 0.417688 -0.0226435
0.269552 0.0125923 0.0275142 -0.000274541 -0.999969 0.00781784
0.0804909 0.0791237 0.561577 0.99999 0.00388616 0.00230137
0.22298 0.147202 0.158153 0 0.994455 0.105163
0.127439 0.132352 0.0551426 0 -0.99393 0.110013
0.0804866 0.110117 0.429448 -0.999917 -0.0111376 -0.00648595
0.195604 0.132329 0.443556 -0.00636595 0.999907 -0.0120789
0.0805139 0.109823 0.277172 -0.99999 0.00273971 -0.00342615
0.248826 0.164208 0.0195892 -0.0205581 -0.70819 0.705723
0.255583 0.158609 0.0195712 0 -0.000884156 1
0.131826 0.129998 0.600777 0.999981 -0.00161491 -0.00588045
0.194684 0.132303 0.548882 -0.0117333 -0.999922 0.00418545
0.132331 0.0310948 0.465258 -0.00245252 0.999983 -0.00523667
0.127355 0.0311015 0.258601 -0.998254 0.000602802 0.0590577
0.0882298 0.147275 0.15558 0.334789 -0.936728 0.102264
0.296566 0.150776 0.0486136 0 -0.0160444 0.999871
0.0177509 0.0545137 0.0485938 0.0221888 -0.0145751 -0.999648
0.0596652 0.108404 0.227095 0.998388 0.028356 0.0491695
0.0805202 0.102794 0.356301 0.999795 0.018692 0.00773054
0.24046 0.152139 0.0485873 0 0.0211409 0.999777
0.138844 0.086359 0.847066 -0.71561 0.693172 -0.0861061
0.158842 0.0787621 0.882756 -0.977114 0.210727 -0.0290374
0.27109 0.0933476 0.161885 -0.999875 -0.00542683 -0.0148846
0.0839821 0.0658378 0.608331 0.162751 0.88871 -0.42861
0.145776 0.0929508 0.855634 0.421863 -0.861524 0.282504
0.0884803 0.0311168 0.541716 -0.0182653 -0.999833 -0.000941085
0.0992398 0.0311677 0.427106 -0.897907 0.0112822 0.440041
0.171454 0.123084 0.335734 0.999954 -0.00174972 0.009442
0.169387 0.117676 0.497974 -0.593987 0.49263 -0.635999
0.175158 0.121429 0.672413 -0.997466 0.0651719 -0.0285442
0.133446 0.0315477 0.452984 -0.998791 0.0404688 -0.0278924
0.182775 0.0310764 0.0940178 -0.639276 -0.00721042 -0.768944
0.0723723 0.000245871 0.0153595 0.369794 0.755932 0.540203
0.116621 0.0244773 0.0803806 0.999511 -0.0252089 0.0185103
0.0921777 0.132401 0.302634 -0.00904076 -0.630295 0.776303
0.199366 0.0367209 0.638017 -0.0103962 -0.999946 -0.00020874
0.0595123 0.0669918 0.176194 -0.99629 -0.0449895 0.0733603
0.193025 0.132287 0.32175 0.0106797 -0.999931 0.00492616
0.198793 0.0310586 0.583445 -0.00539923 0.999985 -5.2033e-05
0.0804789 0.0630676 0.403624 0.999837 -0.0141275 -0.0112699
0.170579 0.0447312 0.58438 0.99997 -0.00636247 -0.00440985
0.0804248 0.0515206 0.536338 0.999981 -0.000110904 -0.00617751
0.10851 0.147294 0.15936 0.0180488 0.999825 0.00483784
0.0886937 0.0311495 0.387286 0.000620909 0.999959 -0.00901571
0.206465 0.166114 0.0186903 -0.030168 0.997939 0.0566418
0.171757 0.0311029 0.554603 -0.0145921 -0.999841 -0.0102418
0.221822 0.051877 0.293623 0.999982 0.00231847 -0.00554396
0.0804773 0.0622292 0.295567 -0.995731 0.0918192 -0.00947772
0.116792 0.165753 0.0195761 0.18298 0.235571 0.954476
0.263005 0.145069 0.0486055 -0.00031295 -0.00372462 -0.999993
0.219939 0.147186 0.139143 -0.00458624 -0.999974 -0.00555224
0.175185 0.12056 0.68467 -0.985101 0.161137 -0.0600922
0.112118 0.126699 0.609755 0.220601 -0.469796 -0.854767
0.221858 0.0701461 0.540793 0.978613 -0.15021 0.14055
0.0345816 0.0594672 0.0764594 -0.999059 -0.0407601 0.0148182
0.221916 0.12895 0.415878 0.999915 -0.0085204 -0.00987538
0.0804507 0.0689477 0.293183 0.999989 0.00231024 -0.00396848
0.0942818 0.147268 0.181262 0.00455465 -0.99998 0.00440046
0.242654 0.0466244 0.102794 0.999994 0.00341211 0.000924514
0.151622 0.0183144 0.0485789 -0.00910137 -0.00611068 0.99994
0.212556 0.031014 0.213607 0.00903076 -0.999492 0.0305527
0.216406 0.106888 0.656085 0.999904 -0.0138411 0.000273591
0.198584 0.113544 0.71494 -0.694774 -0.717773 0.0457195
0.202461 0.0676577 0.738456 0.999942 0.00722796 -0.00799497
0.187219 0.0294992 0.101544 -0.935188 -0.258744 -0.241815
0.155646 0.0900545 0.783006 -0.705012 -0.706348 0.0634876
0.0345998 0.0665021 0.113638 -0.985492 -0.129388 0.109836
0.142794 0.154079 0.0479546 -0.00139397 0.999979 -0.00631727
0.249137 0.132241 0.0950053 -0.014109 -0.99985 -0.0100763
0.00010768 0.0698556 0.0219869 -0.999969 0.00544584 0.00577915
0.166842 0.0310524 0.198465 0 -0.999797 -0.0201486
0.322183 0.0604988 0.0136855 0.151171 0.987332 -0.0482064
0.149371 0.0487815 0.701735 -0.0129345 -0.999908 -0.00417924
0.271098 0.0857438 0.133093 -0.999962 -0.00098495 -0.00861655
0.0493068 0.132463 0.167567 0.0613437 -0.998115 0.00168909
0.167753 0.114658 0.723456 -0.00554395 -0.999952 -0.00810117
0.221819 0.082097 0.337328 -0.999373 -0.035358 -0.00177278
0.0804822 0.0543999 0.307276 -0.99965 0.0108474 0.0241135
0.248695 0.132231 0.0886787 -0.925364 -0.0012661 -0.379077
0.104378 0.147276 0.114297 -0.0161203 -0.999868 0.00200012
0.242679 0.0580783 0.195575 -0.52876 0.185144 -0.828333
0.194306 0.0310249 0.257517 0.0112462 0.999935 0.00199335
0.144121 0.0311221 0.0911201 -0.474821 0.022402 -0.879797
0.080445 0.0672945 0.515607 -0.994685 0.0866172 -0.0556797
0.167514 0.116203 0.688601 0 -0.029291 -0.999571
0.271159 0.120322 0.131814 0.99992 0.0119118 -0.00430945
0.221807 0.0502533 0.387589 0.999997 0.00113477 0.0021595
0.080443 0.0605216 0.596751 0.99993 0.00244314 0.0115781
0.0346639 0.127638 0.0998411 0.999977 0.00309016 0.00602447
0.220449 0.154672 0.0486112 0.0207943 -0.00673502 -0.999761
0.242667 0.0302782 0.173993 0.999927 0.0116644 -0.00314941
0.242624 0.0327933 0.170172 0.999901 0.00867116 0.0110684
0.0693041 0.147317 0.137079 -0.00166139 -0.999974 -0.00705079
0.0595834 0.0229308 0.0846129 0.999824 0.018637 -0.0021723
0.24268 0.0582627 0.260206 0.775455 0.0369273 0.630322
0.221854 0.0535835 0.301907 -0.999971 -0.00734575 0.00223652
0.202467 0.0634684 0.715702 0.999976 0.00364634 0.00588168
0.17872 0.126655 0.633251 0.00826873 0.999752 -0.0206878
0.139906 0.15404 0.00637645 -0.0076222 0.999939 0.00802521
0.145399 0.0457551 0.464413 0 0.999907 0.0136453
0.221841 0.0692075 0.493598 0.999914 -0.00309811 0.0127744
0.134842 0.0127056 0.0240723 0.0182658 0.999831 0.00191383
0.283949 0.0240644 0.0485944 0 0.011592 0.999933
0.287216 0.0125491 0.0100113 0.000623005 -0.999995 0.00305278
0.242629 0.0554907 0.242514 -0.998432 0.0417168 -0.037338
0.221779 0.0339402 0.485776 -0.999648 -0.00950336 0.0247575
0.216421 0.118759 0.624704 0.999937 -0.00226424 -0.0109538
0.170544 0.0431879 0.562949 -0.9767 -0.195906 0.0876292
0.218496 0.132315 0.359824 0.00637846 -0.999922 0.0107618
0.242687 0.0898167 0.0996584 0.999995 0.00093519 -0.00298655
0.0939315 0.13241 0.452623 -0.000907727 0.999955 -0.00941947
0.135005 0.0904426 0.766017 0.0042147 0.00222709 -0.999989
0.242684 0.111134 0.105354 -0.993481 0.0187668 0.112438
0.034637 0.113449 0.128763 0 0.647382 -0.762166
0.311673 0.0617251 0.026831 -0.984333 0.152801 -0.0879821
0.104347 0.0311277 0.560107 -0.00209213 -0.999917 -0.0127179
0.185494 0.132341 0.38725 -0.0817193 -0.994701 -0.0623906
0.242652 0.0274449 0.156747 0.999986 -0.0038934 0.00368931
0.202809 0.0858699 0.688601 -0.758595 0.176835 -0.627107
0.212045 0.0366777 0.614178 -0.953628 0.00158582 -0.300982
0.223333 0.0175311 0.156913 0.00325957 -0.999995 0.000542087
0.159034 0.0724652 0.79379 -0.996869 0.00544224 -0.0788876
0.139253 0.0311158 0.162621 -0.00536131 0.999952 0.00820162
0.0498292 0.13245 0.135749 0.00530259 0.999907 0.0125456
0.157425 0.117681 0.528295 0.0137327 -0.999904 -0.00171611
0.0345711 0.0661457 0.13307 0 0.55778 -0.829989
0.217324 0.147214 0.0536351 0.0121872 0.99991 -0.00564971
0.180648 0.132325 0.372886 0.547251 0.814086 0.194369
0.110524 0.147271 0.0692483 -0.0798797 -0.99304 -0.0865504
0.170543 0.0433885 0.322398 -0.9999 -0.0139611 0.00224151
0.261324 0.117984 0.174429 0.00134111 0.00489022 -0.999987
0.147654 0.0680794 0.871109 -0.0391172 0.989879 -0.136415
0.166272 0.0310572 0.0672828 -0.285018 0.139938 0.948252
0.10374 0.132364 0.444337 -0.0673183 -0.997592 -0.0166661
0.131299 0.0310958 0.20574 -0.040215 0.999176 0.00541365
0.207803 0.132907 0.211017 -0.148439 -0.978965 -0.139976
0.0821366 0.0176586 0.171761 0.0108584 -0.999873 0.0116992
0.242747 0.142988 0.204144 0.99934 -0.0337195 0.0134927
0.0595757 0.0409118 0.204342 0 0.57362 -0.819122
0.112938 0.147302 0.171128 0 0.999725 -0.0234389
0.0346245 0.0662609 0.163753 -0.998494 0.0139781 0.0530574
0.221803 0.0542238 0.479242 -0.999921 0.00394006 -0.0119503
0.080486 0.119941 0.245476 0.244506 -0.958913 0.143884
0.0896224 0.147309 0.191411 -0.999606 0.000132445 -0.0280814
0.10808 0.132392 0.483303 -0.903193 -0.00480911 -0.429207
0.159275 0.152393 0.0485985 -0.188041 0.981154 0.0444635
0.0538268 0.0014734 0.013814 -0.0075516 -0.0178073 -0.999813
0.213758 0.0366767 0.641171 -0.00887983 -0.999954 -0.00369004
0.071067 0.0177075 0.102453 0.0121887 0.999848 -0.0124528
0.190258 0.017599 0.133611 -0.181224 0.948222 0.26083
0.133488 0.0353047 0.301369 -0.999962 0.00247266 0.00836287
0.152961 0.117685 0.396174 -0.702899 -0.0134964 0.711162
0.187272 0.143872 0.139332 -0.999044 0.0350782 0.0260998
0.0862146 0.0368442 0.676195 -0.347918 -0.674933 0.650706
0.324451 0.0495949 0.0165638 0.999942 -0.00589555 -0.00896851
0.0345956 0.0906269 0.162381 0.990057 -0.130067 -0.053567
0.187762 0.0310526 0.433838 0.00994753 -0.999878 -0.012068
0.15783 0.087894 0.818048 -0.708643 -0.705559 0.00340417
0.0804838 0.0925874 0.600387 0.996093 -0.0628314 0.0620503
0.16565 0.0311013 0.081003 -0.00416777 -0.999957 0.008294
0.0804602 0.0683497 0.455221 0.999966 -0.00256788 0.00785793
0.125722 0.13237 0.110769 0 1 -0.000488443
0.248966 0.0809846 0.174473 0.00383255 0.0059232 0.999975
6.48606e-05 0.0387337 0.0406979 0.999961 0.00617595 -0.00623543
0.183968 0.132288 0.444299 -0.00249549 -0.999996 -0.0016911
0.170552 0.0327286 0.378918 -0.961876 -0.273328 0.00933206
0.184678 0.153598 0.0486286 0.145224 0.891139 0.429863
0.11512 0.126688 0.650163 -0.00543965 -0.999957 0.00749622
0.114752 0.132394 0.387977 -0.959865 0.00425993 0.28043
0.216327 0.0391473 0.657093 0.893197 -0.277954 0.35347
0.172816 0.114696 0.718082 -0.240205 0.965586 0.0997307
0.214909 0.132259 0.360752 0.00204959 0.999979 0.00614677
0.034658 0.109044 0.063942 -0.999998 0.00157052 -0.0011882
0.202522 0.103029 0.689377 -0.306544 -0.137735 -0.941838
0.137014 0.053945 0.755132 0.162547 0.762446 -0.626302
0.0755494 0.147283 0.1089 -0.0300061 -0.991862 -0.123729
0.221873 0.123177 0.283025 -0.998525 0.0519525 -0.0157687
0.120019 0.0367805 0.623912 -0.0036956 -0.999991 0.00209495
0.12633 0.0190528 0.00200188 -0.00633649 0.999541 0.0296426
0.174037 0.112128 0.745671 0.857763 -0.205894 -0.471009
0.0861839 0.0911447 0.617671 0.999874 -0.011037 0.0114238
0.0952946 0.147293 0.106608 0.0022656 0.999994 0.00256676
0.133464 0.0371579 0.60261 0 0.191843 -0.981426
