ply
format ascii 1.0
comment PCL generated
obj_info is_cyberware_data 0
obj_info is_mesh 0
obj_info is_warped 0
obj_info is_interlaced 0
obj_info num_cols 56417
obj_info num_rows 1
obj_info echo_rgb_offset_x 0
obj_info echo_rgb_offset_y 0
obj_info echo_rgb_offset_z 0
obj_info echo_rgb_frontfocus 0.0
obj_info echo_rgb_backfocus 0.0
obj_info echo_rgb_pixelsize 0.0
obj_info echo_rgb_centerpixel 0
obj_info echo_frames 1
obj_info echo_lgincr 0.0
element vertex 665
property float x
property float y
property float z
property uchar red
property uchar green
property uchar blue
property float nx
property float ny
property float nz
property float curvature
end_header
0.000581869 -1 0.000381508 209 71 132 0.122065 0.0311111 0.532715 0
-0.726369 0.687206 -0.011637 242 255 28 0.158196 0.0716419 0.779606 0
1 -8.7728e-05 -0.000108918 24 90 169 0.242675 0.0738277 0.149357 0
0.000918519 0.00174143 0.999998 0 140 72 0.281612 0.150893 0.0486004 0
1 -0.000226862 -7.3299e-05 24 90 169 0.221817 0.0507115 0.383494 0
-0.999537 0.0304228 -0.000777639 255 13 3 0.131786 0.125546 0.44835 0
-0.00107625 0.999998 0.00143052 162 29 33 0.0879908 0.147302 0.0604728 0
0.999999 -0.000966197 0.000844032 24 90 169 0.0804616 0.0663088 0.508031 0
0.000581869 -1 0.000381508 209 71 132 0.129844 0.0311121 0.523501 0
-0.000318983 1 0.000194082 162 29 33 0.141564 0.0457371 0.607798 0
-0.000602546 -1 0.000284285 209 71 132 0.13786 0.154055 0.0350356 0
0.00161835 0.999973 0.00713893 162 29 33 0.142873 0.166125 0.0175471 0
-0.000510965 -1 -0.000404436 209 71 132 0.0937862 0.0311419 0.542043 0
0.00140881 0.99998 0.00622988 162 29 33 0.0972579 0.160407 0.0453131 0
0.999891 0.000236508 -0.0148014 255 255 21 0.131904 0.130214 0.332966 0
1 -0.000903538 -2.8008e-05 24 90 169 0.2711 0.088429 0.105261 0
0.999989 -0.00434061 -0.00184045 24 90 169 0.31161 0.0191499 0.0360063 0
1 -0.000337338 -0.000274719 24 90 169 0.202524 0.109069 0.71728 0
0.999993 -0.00146151 -0.00345647 24 90 169 0.242649 0.0442617 0.16844 0
0.999948 0.00146461 -0.0101157 102 44 145 0.133503 0.0415733 0.433129 0
0.00597238 -0.999977 0.00313618 209 71 132 0.124581 0.132373 0.0607233 0
0.999998 0.00117467 0.00162727 24 90 169 0.221896 0.127976 0.320978 0
0.000414704 1 -0.000863348 162 29 33 0.101132 0.0311399 0.434018 0
0.999998 -0.000849338 -0.00154986 24 90 169 0.216407 0.117127 0.633051 0
1 -0.000372753 5.7953e-05 24 90 169 0.0805105 0.116555 0.448435 0
-0.999361 -0.0134543 0.033114 250 167 91 0.31174 0.139763 0.00167403 0
0.00431314 0.0025097 0.999988 0 140 72 0.0629753 0.0272797 0.211028 0
-0.000772423 -0.999999 -0.00114543 209 71 132 0.179978 0.126632 0.628312 0
0.999976 -0.00635368 -0.00295076 77 77 77 0.000134774 0.140923 0.0449005 0
0.00111826 0.999999 0.0002234 162 29 33 0.140925 0.1147 0.732511 0
-0.00277696 0.999949 -0.00967729 233 255 13 0.0723945 0.0176801 0.168224 0
0.999997 0.000142274 0.00236005 24 90 169 0.242732 0.125966 0.0963182 0
-0.00105766 -0.999999 0.000264418 209 71 132 0.143373 0.117712 0.520794 0
0.00098545 0.999999 -0.00086779 162 29 33 0.196802 0.0310517 0.331502 0
-0.00515278 0.999969 0.00602495 162 29 33 0.149956 0.0457303 0.585556 0
0.999999 7.5208e-05 -0.00142193 24 90 169 0.0805147 0.121383 0.596571 0
-0.00318651 0.999907 -0.0132278 255 255 31 0.225232 0.147172 0.0713834 0
0.000806844 0.999999 -0.00150718 162 29 33 0.159987 0.132341 0.127606 0
0.000811331 -0.00109629 -0.999999 122 195 106 0.0446882 0.114406 0.176188 0
-0.999887 -0.00458392 -0.0143349 255 211 10 0.242693 0.0891197 0.20196 0
-0.000702597 -1 0.000245703 209 71 132 0.190539 0.126631 0.625496 0
0.00138247 -0.999998 -0.00168585 209 71 132 0.177308 0.0310806 0.25029 0
0.999998 -0.00185956 -0.000365071 24 90 169 0.0804449 0.0441409 0.494285 0
-0.0022904 0.999996 0.00143493 162 29 33 0.153067 0.117702 0.268404 0
1 -0.00042273 0.000667456 24 90 169 0.14551 0.0798027 0.964037 0
-0.000158319 -0.999999 0.00120681 209 71 132 0.187762 0.0310536 0.321134 0
-0.00112986 -0.999999 -0.000549686 209 71 132 0.189973 0.0310599 0.400887 0
-0.00522228 0.999647 0.0260545 255 231 22 0.118801 0.154066 0.0463678 0
0.999984 -0.00100157 -0.00561307 102 44 145 0.0804861 0.10416 0.586785 0
-0.00281975 -0.0104573 0.999941 255 171 37 0.227157 0.154939 0.0538855 0
0.000174645 0.000148169 -1 122 195 106 0.187105 0.0899812 0.760602 0
0.999998 0.00109381 0.00154239 24 90 169 0.000140329 0.136235 0.0314494 0
-0.00241608 -0.999996 -0.00141348 209 71 132 0.0606837 0.0446164 0.232754 0
0.00151644 0.999998 0.0014614 162 29 33 0.182749 0.0310631 0.527588 0
0.999998 0.000120757 -0.00179485 24 90 169 0.271105 0.0981321 0.0516927 0
0.00205176 0.999998 0.000499086 162 29 33 0.19414 0.14721 0.126711 0
0.0142004 0.999848 0.0101272 59 22 255 0.168483 0.101787 0.760298 0
0.000613303 1 9.7524e-05 162 29 33 0.0975375 0.147296 0.14947 0
1 -0.000186489 -0.00096972 24 90 169 0.242664 0.060483 0.108824 0
0.0432748 -0.999061 0.00232383 255 7 255 0.269427 0.0309646 0.135276 0
1 -0.000450339 0.000382202 24 90 169 0.0805017 0.103295 0.324423 0
0.999981 0.0059833 -0.00151307 244 125 35 3.52513e-05 0.0145518 0.0185214 0
0.00110484 0.999999 -4.3868e-05 162 29 33 0.105291 0.147284 0.202484 0
-9.3632e-05 7.9721e-05 1 0 140 72 0.0187146 0.0437512 0.0486034 0
-0.000195817 -1 0.000588121 209 71 132 0.160984 0.117698 0.313616 0
-0.999651 -0.0215162 0.0153445 255 255 24 0.0804447 0.0449028 0.366922 0
0.00725178 0.999942 -0.00790247 241 90 96 0.183932 0.0310655 0.469129 0
0.999999 -0.00126753 -0.000104441 24 90 169 0.221872 0.101299 0.340654 0
0.000623678 1 0.000410667 162 29 33 0.0980697 0.132394 0.325067 0
-0.00434803 0.999843 0.0171571 111 255 19 0.20481 0.132293 0.604234 0
0.280746 -0.955875 0.0865194 33 255 255 0.208217 0.132076 0.44537 0
-0.999749 0.0163641 -0.0153111 14 255 255 0.0805268 0.0982891 0.587791 0
0.00412461 0.999982 -0.00440395 162 29 33 0.0329594 0.0127714 0.00622709 0
0.999744 -0.0136423 -0.0180591 0 255 255 0.0804458 0.0361484 0.237853 0
-0.00099368 -1 9.9095e-05 209 71 132 0.199476 0.0310473 0.53936 0
-0.000510965 -1 -0.000404436 209 71 132 0.0891977 0.0311403 0.551706 0
-0.00123431 -0.999999 -0.000438413 209 71 132 0.214554 0.13229 0.235758 0
-0.00050331 -0.000776658 1 0 140 72 0.156634 0.124447 0.257435 0
-0.000502038 -0.000277067 1 0 140 72 0.260646 0.134497 0.0486064 0
0.00371832 0.999992 -0.00117875 162 29 33 0.237531 0.0175168 0.184103 0
-0.000485709 -0.00131303 -0.999999 122 195 106 0.274199 0.0526984 0.0486131 0
-0.000386285 1 0.000893819 162 29 33 0.184548 0.13231 0.265763 0
-0.000343319 -1 0.000125268 209 71 132 0.203532 0.0310438 0.248817 0
0.00116537 0.999999 -0.000164528 162 29 33 0.071705 0.0176878 0.188024 0
0.00140881 0.99998 0.00622988 162 29 33 0.0994621 0.160398 0.0463303 0
-0.00117006 -0.999999 0.000195224 209 71 132 0.22093 0.147186 0.117934 0
0.688447 -0.472011 -0.550678 255 105 13 0.300385 0.15476 0.0137875 0
-0.00172567 -0.999998 -0.000689704 209 71 132 0.12901 0.132365 0.342607 0
-0.000426833 0.00613741 0.999981 0 140 72 0.0526706 0.00901487 0.0137057 0
0.999999 -0.000718737 -0.00138232 24 90 169 0.0345928 0.0564572 0.160098 0
0.000613303 1 9.7524e-05 162 29 33 0.0952202 0.147298 0.144941 0
0.000780476 0.000135772 -1 122 195 106 0.127045 0.0842757 0.766035 0
-0.014206 -0.999896 -0.0024782 255 255 19 0.134472 0.0457398 0.628013 0
0.00202913 -0.999995 0.00262459 209 71 132 0.125132 0.0311063 0.379938 0
0.999999 0.00156134 -2.5876e-05 24 90 169 0.170567 0.0440929 0.378112 0
-0.00266442 0.00197977 -0.999995 122 195 106 0.277419 0.00888101 0.0137171 0
-0.999842 0.00132021 -0.0177467 255 5 5 0.0861519 0.0708593 0.65065 0
0.00162242 0.999999 -0.000272057 162 29 33 0.131676 0.0311081 0.162648 0
0.000613303 1 9.7524e-05 162 29 33 0.106019 0.14729 0.156522 0
0.00212454 -0.999998 -0.000108328 209 71 132 0.151587 0.0310794 0.201109 0
0.280746 -0.955875 0.0865194 33 255 255 0.209019 0.132128 0.443343 0
0.00233706 0.999997 -0.000575112 162 29 33 0.250202 0.132264 0.170552 0
0.000654729 1 -0.000662235 162 29 33 0.184028 0.0310619 0.487871 0
-0.998529 -0.0526303 0.0130723 34 255 255 0.0596818 0.144465 0.0733212 0
-0.000271799 -1 -7.601e-06 209 71 132 0.103507 0.0311389 0.321744 0
-0.0185302 -0.160768 0.986818 180 3 255 0.193994 0.163778 0.0137418 0
0.999998 -0.000906995 -0.00159966 24 90 169 0.0345982 0.0728052 0.103379 0
0.000217119 0.00690354 0.999976 0 140 72 0.242929 0.00978095 0.0195428 0
-0.00357831 0.999568 -0.029182 241 124 176 0.240624 0.165993 0.0152305 0
-0.0008083 -1 -6.9396e-05 209 71 132 0.103715 0.13239 0.442044 0
-0.00307971 -0.999995 -0.00113297 209 71 132 0.17278 0.0310732 0.15245 0
0.000961594 0.999999 0.000340986 162 29 33 0.147019 0.0487489 0.710542 0
0.999992 -0.00391924 0.000449673 24 90 169 0.187196 0.0263911 0.123701 0
0.999982 0.00176138 -0.00568523 102 44 145 0.0346036 0.0644372 0.057711 0
0.0210996 0.00382937 0.99977 255 81 34 0.219932 0.120236 0.608287 0
-0.000753102 0.00217649 -0.999997 122 195 106 0.177078 0.159287 0.0195611 0
0.999999 -0.00105927 -0.00103179 24 90 169 0.216395 0.0797787 0.63948 0
0.00123717 0.999999 -0.000393789 162 29 33 0.205667 0.132302 0.382444 0
-0.00050799 -1 -0.000762519 209 71 132 0.121992 0.0311162 0.21207 0
0.00155286 0.999999 0.000550913 162 29 33 0.174323 0.031069 0.309871 0
0.999995 -0.00302469 -0.000529133 24 90 169 0.170563 0.0361222 0.476444 0
0.000142588 1 -0.000988519 162 29 33 0.114925 0.0311304 0.568842 0
0.00221481 -0.999997 0.00116821 209 71 132 0.184758 0.0367211 0.634401 0
0.00461082 0.999976 -0.00516457 162 29 33 0.0851125 0.132409 0.526768 0
0.000149753 -1 -0.0008235 209 71 132 0.141439 0.117717 0.666679 0
0.00190388 0.999998 0.000467259 162 29 33 0.192907 0.132317 0.564396 0
-0.00099368 -1 9.9095e-05 209 71 132 0.195631 0.0310531 0.558513 0
-0.999909 -0.0109479 -0.00786414 255 228 6 0.13346 0.0442092 0.278928 0
0.999999 -0.00126071 0.000768982 24 90 169 0.187299 0.144787 0.152826 0
0.00228758 -0.99999 -0.00380254 209 71 132 0.113278 0.132388 0.224523 0
0.99987 -0.0125031 -0.0101563 255 73 0 0.221803 0.038068 0.553498 0
0.999955 -0.0041192 0.00858475 24 90 169 0.216386 0.0939405 0.630904 0
-0.998898 0.0332053 -0.0331779 255 255 15 0.216391 0.0873937 0.619764 0
1 -9.0085e-05 0.00021324 24 90 169 0.0804533 0.0528528 0.40018 0
0.00277019 -0.999993 0.00264804 209 71 132 0.109869 0.132378 0.437101 0
0.00123619 0.999999 3.8841e-05 162 29 33 0.151699 0.0310854 0.194994 0
-0.000119504 -1 -2.1207e-05 209 71 132 0.118359 0.114725 0.695042 0
0.00141895 0.999992 0.00388598 162 29 33 0.0987651 0.0311305 0.497057 0
-0.00195299 -0.999998 -0.000245648 209 71 132 0.146784 0.045731 0.285833 0
0.999998 -0.000689046 0.00188875 24 90 169 0.311618 0.0410904 0.0300376 0
0.00096006 1 4.622e-06 162 29 33 0.153715 0.0310933 0.232887 0
0.999999 0.00102098 -0.00140917 24 90 169 0.170583 0.0328714 0.457189 0
1 -0.000701771 -3.8802e-05 24 90 169 0.242672 0.0685547 0.0989168 0
-0.00144388 0.00157309 -0.999998 122 195 106 0.0373684 0.151311 0.0486113 0
0.999999 -0.0010015 -0.00057258 24 90 169 0.0805121 0.127706 0.215173 0
0.00144579 0.999999 -0.000790103 162 29 33 0.174763 0.154023 0.0324537 0
-0.00411898 -0.999987 0.00304706 209 71 132 0.104452 0.0488334 0.736004 0
0.999987 -0.00499602 -0.000569079 24 90 169 6.71077e-05 0.0535558 0.0189195 0
1 -8.7728e-05 -0.000108918 24 90 169 0.242675 0.0750995 0.150431 0
0.00017443 -0.000114079 -1 122 195 106 0.0758555 0.0854335 0.262015 0
1 -0.000940145 0.000379124 24 90 169 0.202517 0.100208 0.710289 0
1 -0.000134349 -9.0277e-05 24 90 169 0.22181 0.0345606 0.399558 0
0.999975 0.00703963 -0.0003275 244 125 35 0.128741 0.123273 0.657683 0
1 -0.000452504 0.000512136 24 90 169 0.0990438 0.0589236 0.733276 0
0.00096006 1 4.622e-06 162 29 33 0.13711 0.0311093 0.233592 0
1 -0.000723197 0.000175584 24 90 169 0.13348 0.0362017 0.282166 0
0.999998 -0.00111882 -0.00146498 24 90 169 0.0804746 0.0914138 0.341805 0
0.0043907 -0.999333 0.0362516 255 255 12 0.220041 0.030869 0.316864 0
0.000693822 -0.999992 0.0040649 209 71 132 0.219379 0.132269 0.397962 0
0.00129386 -0.000985753 0.999999 0 140 72 0.251275 0.0483384 0.174448 0
0.00466108 -0.999807 0.019097 255 44 1 0.178691 0.126649 0.652161 0
1 3.4332e-05 -6.6596e-05 24 90 169 0.242667 0.0598398 0.124832 0
0.999999 -0.00105927 -0.00103179 24 90 169 0.216376 0.0758959 0.625233 0
0.00134791 0.999984 -0.00542334 162 29 33 0.199103 0.132303 0.342133 0
0.999988 0.00463924 -0.00135495 24 90 169 0.216387 0.0669795 0.669225 0
0.00150108 0.999999 -0.000567634 162 29 33 0.127761 0.132363 0.250765 0
-0.000590571 -1 0.00031085 209 71 132 0.104312 0.0311315 0.337737 0
-0.000164518 1 0.00081599 162 29 33 0.141492 0.117717 0.638902 0
1 -0.000404449 0.000244578 24 90 169 0.221841 0.0714114 0.466339 0
1 -0.000798019 -0.000261733 24 90 169 0.0804343 0.0342517 0.427624 0
0.999998 -0.00208592 0.000673955 24 90 169 0.116727 0.137165 0.20138 0
0.00531531 0.999983 0.00248814 162 29 33 0.0969519 0.0127109 0.0099073 0
0.999998 -0.00153876 0.00116836 24 90 169 0.22185 0.0936749 0.556306 0
-0.00611636 -0.999975 -0.00360462 209 71 132 0.0912791 0.132417 0.473032 0
0.999997 -0.00107958 -0.00204178 24 90 169 0.202486 0.0623272 0.731402 0
-0.00284528 -0.999996 -7.5067e-05 209 71 132 0.146011 0.0457323 0.633686 0
0.999998 -0.000849338 -0.00154986 24 90 169 0.216403 0.115582 0.631845 0
0.999999 -0.00137935 0.000465619 24 90 169 0.221889 0.127703 0.566733 0
0.00105634 0.999999 -0.00137529 162 29 33 0.1058 0.031131 0.592684 0
0.00539878 -0.999984 0.00161408 209 71 132 0.136666 0.132359 0.241926 0
1 -0.000851286 -0.000296748 24 90 169 0.0345812 0.0467636 0.106454 0
1 -0.000763115 -0.000419242 24 90 169 0.0804806 0.08936 0.288278 0
0.999986 -0.00507097 0.00183534 24 90 169 0.0596447 0.133977 0.142138 0
-0.000559669 -0.999999 -0.000937637 209 71 132 0.124507 0.0311116 0.487715 0
0.999995 -0.00319245 0.000216766 24 90 169 0.216346 0.0427493 0.622873 0
0.657801 0.399176 -0.638715 151 21 255 0.312887 0.0430762 0.0137256 0
0.999974 -0.00631999 0.0034401 24 90 169 0.242676 0.0640586 0.066169 0
0.0012023 0.999999 -2.1399e-05 162 29 33 0.188487 0.13231 0.571265 0
0.00386496 0.999987 0.00343695 162 29 33 0.13915 0.0457402 0.539904 0
0.00116746 0.999999 -0.000756187 162 29 33 0.157795 0.0457224 0.504062 0
-0.00112939 -0.999999 0.000599533 209 71 132 0.22901 0.147175 0.154861 0
0.00112629 0.999999 0.000407445 162 29 33 0.098735 0.0176604 0.170686 0
0.999981 0.00601745 0.00159514 24 90 169 0.133466 0.0341276 0.496552 0
-0.999864 -0.0161001 0.00355379 255 255 24 0.0595653 0.024385 0.0845056 0
0.000111801 -0.999989 -0.00472134 209 71 132 0.233109 0.119249 0.227202 0
0.999999 -0.000438896 -0.00127616 24 90 169 0.0861352 0.0533011 0.633488 0
0.999909 -0.00118912 -0.01347 102 44 145 0.242662 0.0541133 0.161121 0
0.999999 -0.00128702 -5.3356e-05 24 90 169 0.0861531 0.0658665 0.616032 0
0.999959 0.00896546 0.000897676 244 125 35 0.221876 0.0935596 0.532443 0
0.00369565 0.999991 -0.00188034 162 29 33 0.222123 0.0175681 0.145122 0
0.00216575 0.0027739 0.999994 0 140 72 0.236581 0.0232327 0.211027 0
0.00131421 0.999996 -0.00250336 162 29 33 0.109111 0.0311423 0.398329 0
0.999999 -0.00137935 0.000465619 24 90 169 0.221886 0.122229 0.555803 0
0.00251508 0.999997 -0.000334207 162 29 33 0.145178 0.012678 0.00842565 0
0.00307681 -0.999974 0.00658663 209 71 132 0.228429 0.012599 0.00469992 0
0.00794878 -0.999964 0.00293453 255 54 23 0.0853215 0.0311439 0.399748 0
0.00031643 -0.00194328 0.999998 0 140 72 0.0600059 0.000771319 0.0195474 0
0.00096006 1 4.622e-06 162 29 33 0.141318 0.0311053 0.219167 0
-0.000129695 0.999999 0.00134287 162 29 33 0.0994966 0.0311399 0.352871 0
0.00431314 0.0025097 0.999988 0 140 72 0.0665073 0.0206177 0.211029 0
0.999999 -0.000270125 0.00132409 24 90 169 0.0804336 0.0374014 0.457722 0
0.148414 -0.981655 0.119692 255 11 255 0.150255 0.0670816 0.861652 0
-0.839656 -0.542101 0.0332353 255 90 30 0.139572 0.0729475 0.872814 0
0.00171399 0.999999 7.221e-05 162 29 33 0.0729392 0.160433 0.0310259 0
0.999992 -0.00399255 0.00068888 24 90 169 0.0804351 0.0413247 0.302226 0
-0.000620926 -0.999968 0.00794911 209 71 132 0.0816566 0.132416 0.347557 0
-0.000494491 -0.999999 0.00114307 209 71 132 0.128483 0.132364 0.461037 0
0.000838211 0.999999 -0.000879228 162 29 33 0.211472 0.147193 0.186535 0
0.999999 -0.00125374 -0.000134665 24 90 169 0.216365 0.0600321 0.643826 0
-0.0200965 -0.999615 -0.0191243 215 127 180 0.203917 0.132284 0.254933 0
-0.00984019 -0.00638206 0.999931 255 255 7 0.0474186 0.054681 0.176199 0
0.00116746 0.999999 -0.000756187 162 29 33 0.154643 0.0457223 0.499035 0
0.00201118 -0.999998 0.000433519 209 71 132 0.212733 0.132278 0.604561 0
-0.964114 0.260454 0.0514584 16 255 255 0.135124 0.0790778 0.787552 0
-0.00140068 -0.999999 -0.000766565 209 71 132 0.214555 0.132281 0.266277 0
-0.000994808 -1 0.000116135 209 71 132 0.216042 0.132288 0.515391 0
1 0.000749373 -0.000658244 24 90 169 0.0805201 0.121043 0.529457 0
0.999985 -0.00535525 -0.0010452 24 90 169 0.311704 0.109815 0.00144024 0
0.999991 -0.00371192 0.00227705 24 90 169 0.216382 0.0941028 0.651436 0
1 -0.000452504 0.000512136 24 90 169 0.0990435 0.055124 0.730513 0
0.000623678 1 0.000410667 162 29 33 0.0979561 0.132392 0.329843 0
-0.0208493 -0.999781 -0.00189458 255 132 27 0.121623 0.031092 0.601543 0
1 -8.7728e-05 -0.000108918 24 90 169 0.242675 0.0820119 0.141003 0
1 -0.000903538 -2.8008e-05 24 90 169 0.271121 0.110981 0.105017 0
0.00160824 0.999998 -0.000771443 162 29 33 0.0476473 0.154132 0.0280559 0
1 -0.000758503 -0.000220688 24 90 169 0.221869 0.112968 0.353349 0
-0.00611636 -0.999975 -0.00360462 209 71 132 0.0916798 0.132405 0.475662 0
0.999996 -0.00141413 0.00256024 24 90 169 0.0804998 0.0994063 0.425739 0
0.00152419 0.999999 -0.000231907 162 29 33 0.163113 0.0457155 0.387127 0
0.000509061 -0.999998 0.0017502 209 71 132 0.199298 0.0367125 0.652711 0
0.0012023 0.999999 -2.1399e-05 162 29 33 0.188589 0.13231 0.569754 0
1 -0.000701771 -3.8802e-05 24 90 169 0.242691 0.0954 0.096429 0
0.999974 0.000490929 -0.00716875 102 44 145 0.116718 0.134654 0.0762562 0
0.00163903 0.999998 -0.00141827 162 29 33 0.111383 0.132386 0.555801 0
0.999991 -0.00166064 0.00385186 24 90 169 0.000112585 0.0798904 0.0247648 0
0.999992 -0.0040382 0.000531711 24 90 169 0.080462 0.0407999 0.473531 0
-0.000521741 -1 0.00061323 209 71 132 0.11592 0.0367903 0.637502 0
0.999999 -0.00100002 0.000786655 24 90 169 0.22183 0.067627 0.537471 0
-0.000875114 -1 -0.000234619 209 71 132 0.153158 0.132346 0.17409 0
0.0120608 0.999898 -0.00769018 241 90 96 0.0799932 0.147305 0.145207 0
-0.0047762 0.999988 0.000760331 162 29 33 0.208354 0.132293 0.219551 0
0.00313423 0.999993 -0.00193104 162 29 33 0.156178 0.045729 0.416146 0
0.00371669 0.999993 0.000608673 162 29 33 0.214283 0.0126278 0.00935003 0
0.00149607 0.999996 -0.00249401 162 29 33 0.170756 0.0457067 0.643979 0
-0.999807 -0.0163161 0.0109817 255 255 24 0.080531 0.0862519 0.454512 0
0.052759 0.998576 -0.00796297 9 255 144 0.129808 0.117777 0.645739 0
-0.000521741 -1 0.00061323 209 71 132 0.111389 0.0367893 0.631985 0
0.999998 -0.00195321 -7.2565e-05 24 90 169 0.171475 0.126247 0.266747 0
0.001944 -0.00233028 0.999995 0 140 72 0.173948 0.0104496 0.019567 0
-0.999954 -0.00566445 -0.00780738 14 255 238 0.22188 0.108867 0.341129 0
0.999966 0.00130417 -0.00813802 102 44 145 0.175917 0.0605511 0.764504 0
1 -0.000728485 -0.00044034 24 90 169 0.221807 0.0390673 0.465298 0
1 -0.000553495 0.000422053 24 90 169 0.221871 0.113227 0.435984 0
0.000805228 1 0.000370391 162 29 33 0.156585 0.117707 0.438907 0
-0.00597476 -0.999982 -0.000881948 209 71 132 0.20243 0.132297 0.300232 0
0.000452561 0.999999 0.0013269 162 29 33 0.171205 0.0457094 0.613283 0
0.00211867 0.999998 -0.00027705 162 29 33 0.289228 0.0125387 0.00190622 0
0.000623678 1 0.000410667 162 29 33 0.108148 0.132391 0.316665 0
-0.00232095 -0.999997 -0.000573026 209 71 132 0.234429 0.147163 0.131508 0
-0.000461436 1 0.000238358 162 29 33 0.197567 0.1472 0.0824952 0
0.00187829 0.999998 -0.000469923 162 29 33 0.196667 0.0310513 0.212866 0
0.00201118 -0.999998 0.000433519 209 71 132 0.21831 0.132287 0.600377 0
0.000479977 -0.999999 -0.00132752 209 71 132 0.0944701 0.132407 0.229562 0
-0.00548801 0.00631452 -0.999965 122 195 106 0.255596 0.00550186 0.013712 0
5.9802e-05 -1 -5.159e-05 209 71 132 0.174064 0.132337 0.0674775 0
0.00116746 0.999999 -0.000756187 162 29 33 0.158795 0.0457163 0.4975 0
0.00142196 0.999999 -0.000160064 162 29 33 0.0909067 0.12672 0.622833 0
0.999986 -0.00520327 -0.000822595 24 90 169 0.0346111 0.0709404 0.118035 0
-0.000355627 -1 0.000808639 209 71 132 0.130325 0.132363 0.0580256 0
-2.6001e-05 -0.999999 0.00142198 209 71 132 0.149885 0.154053 0.0460383 0
0.00179079 0.999998 0.000186049 162 29 33 0.14735 0.117722 0.583784 0
0.999988 0.00152462 0.00473089 24 90 169 0.242619 0.0196666 0.130563 0
1 -0.000903538 -2.8008e-05 24 90 169 0.271107 0.0965783 0.095171 0
0.000239982 0.000142273 1 0 140 72 0.293165 0.124298 0.0486075 0
0.00116012 0.999999 0.00121254 162 29 33 0.208534 0.0310428 0.5067 0
0.00795772 -0.999947 0.00660299 255 47 19 0.0841467 0.132418 0.535301 0
0.0089633 0.999915 -0.00945358 182 160 96 0.227163 0.0175368 0.072621 0
-0.00123369 -0.999999 -0.00093846 209 71 132 0.172881 0.0457072 0.67209 0
0.999998 -0.00111882 -0.00146498 24 90 169 0.0804799 0.0988299 0.339819 0
-0.0113735 -0.999933 -0.002151 255 255 19 0.234279 0.0175469 0.205649 0
0.00579553 -0.998289 0.0581906 193 28 255 0.208114 0.154149 0.01376 0
1 -5.1936e-05 1.0508e-05 24 90 169 0.171469 0.121997 0.325611 0
1 0.000749373 -0.000658244 24 90 169 0.0805117 0.127526 0.524099 0
0.999889 0.0124747 -0.00818884 255 255 14 0.0861887 0.115076 0.636086 0
-0.00785378 -0.00267619 0.999966 255 255 7 0.0191429 0.0803621 0.0486083 0
-0.00129908 0.00143339 0.999998 0 140 72 0.220829 0.00873862 0.0539011 0
-0.0125001 -0.99978 -0.0168494 255 89 29 0.0871577 0.0311391 0.362778 0
0.00703599 0.999975 0.000484526 162 29 33 0.175906 0.132329 0.300216 0
-0.00462893 -0.999988 -0.00184551 209 71 132 0.126256 0.132361 0.479994 0
0.999905 -0.0123387 0.00610618 77 77 77 0.0805069 0.0728742 0.360778 0
-0.000311592 0.999976 0.00689427 162 29 33 0.302848 0.153915 0.0240849 0
0.00131421 0.999996 -0.00250336 162 29 33 0.0916506 0.0311424 0.389204 0
0.00703599 0.999975 0.000484526 162 29 33 0.178296 0.132311 0.302309 0
0.00412966 0.999964 -0.00744083 182 160 96 0.205416 0.0367209 0.614089 0
-0.991216 -0.0893883 -0.0974723 255 255 24 0.162233 0.0813288 0.866022 0
0.00743688 -0.00359777 -0.999966 255 255 1 0.0185113 0.0565291 0.0485916 0
0.00112428 0.999998 -0.0015536 162 29 33 0.207818 0.0310414 0.462809 0
-0.00049985 -1 0.000167059 209 71 132 0.0544656 0.132436 0.0650703 0
1 -3.6048e-05 0.000602721 24 90 169 0.242736 0.139942 0.201542 0
0.999988 0.00411196 -0.0025652 24 90 169 0.0804927 0.112874 0.358275 0
0.999999 -0.00102192 0.000585851 24 90 169 0.221826 0.0564267 0.457952 0
0.00128735 -0.999998 0.00173141 209 71 132 0.152782 0.0457127 0.47998 0
-0.00123369 -0.999999 -0.00093846 209 71 132 0.174408 0.0457199 0.656533 0
-0.256371 0.963256 0.0800803 255 216 12 0.153114 0.0673952 0.796014 0
0.00361586 0.999993 -0.000977286 162 29 33 0.0712268 0.0127523 0.00826408 0
-0.00134715 -0.999999 -0.000200163 209 71 132 0.159177 0.117701 0.370312 0
4.7341e-05 -1 0.000796914 209 71 132 0.189335 0.0310645 0.286568 0
-0.00583281 0.99995 0.00811006 255 235 27 0.201237 0.031065 0.457447 0
0.00125716 0.999999 -9.267e-05 162 29 33 0.259828 0.132249 0.1333 0
0.000255749 1 0.000334007 162 29 33 0.0916576 0.017661 0.142329 0
-0.00140394 -0.999998 0.0011262 209 71 132 0.150623 0.0457315 0.664493 0
-0.271675 0.889071 -0.368436 26 255 255 0.147205 0.117602 0.339129 0
0.999978 -0.00631348 -0.00195513 77 77 77 0.221878 0.108601 0.441867 0
0.00014643 -0.022831 -0.999739 6 23 255 0.219783 0.162009 0.0137047 0
0.999999 -0.00115554 0.000120638 24 90 169 0.271091 0.0822479 0.0571273 0
0.999892 0.014229 -0.00370334 244 125 35 0.0804989 0.0938969 0.529261 0
0.999996 0.00218364 0.0019155 24 90 169 0.17517 0.125104 0.64846 0
1 -0.000798019 -0.000261733 24 90 169 0.0804544 0.0544411 0.442719 0
-0.00283232 0.00832143 -0.999961 122 195 106 0.239446 0.160828 0.0195727 0
0.999999 -0.00124084 -0.000631465 24 90 169 0.0804554 0.0472002 0.54368 0
0.999999 -0.00130388 -0.000443926 24 90 169 0.221836 0.066809 0.39959 0
-0.00153775 -0.999983 -0.00571221 209 71 132 0.204994 0.132298 0.585112 0
0.999842 0.0170626 0.00504843 255 145 7 0.000113385 0.071736 0.028388 0
0.999995 -0.00319245 0.000216766 24 90 169 0.216337 0.0396216 0.619778 0
0.000640517 -0.999995 0.0030322 209 71 132 0.125814 0.132361 0.57017 0
1 -0.000334704 -0.000564975 24 90 169 5.16821e-05 0.0283494 0.0172288 0
0.999999 -0.000441096 0.00137488 24 90 169 0.0990766 0.0945723 0.71969 0
-0.0605575 -0.0360536 0.997513 13 255 255 0.00473769 0.0130246 0.0486136 0
0.00792595 0.999937 -0.00794051 241 90 96 0.190599 0.0310422 0.299278 0
1 -0.000701771 -3.8802e-05 24 90 169 0.242683 0.0845692 0.101711 0
0.00211867 0.999998 -0.00027705 162 29 33 0.284952 0.0125503 0.0110495 0
0.000795496 1 -0.000139445 162 29 33 0.184971 0.0310572 0.11335 0
-0.00143915 -0.999998 -0.00110631 209 71 132 0.150322 0.0126676 0.0441863 0
1 0.000317295 -0.000831191 24 90 169 0.2427 0.0972217 0.139939 0
0.00113624 -0.999995 0.00281223 209 71 132 0.207461 0.132283 0.572293 0
0.999995 -0.00182044 0.00243257 24 90 169 0.22189 0.125929 0.460019 0
-0.0053657 -0.999981 -0.00305036 209 71 132 0.21444 0.132259 0.303596 0
-0.00671206 -0.999921 -0.0106299 255 47 26 0.123772 0.132368 0.229275 0
-0.000160494 0.00170199 -0.999999 122 195 106 0.0405631 0.0468687 0.17619 0
-0.785349 0.0308574 -0.618284 255 12 255 0.198723 0.147205 0.149401 0
0.000959093 1 -0.00033949 162 29 33 0.0877526 0.0311512 0.301858 0
0.999998 -0.00197471 0.000973395 24 90 169 0.0596342 0.0738189 0.183669 0
0.99997 -0.00772269 -0.00034148 77 77 77 0.271059 0.0395881 0.0671315 0
0.999981 -0.000859912 0.00614494 24 90 169 0.221878 0.126609 0.446063 0
0.00161835 0.999973 0.00713893 162 29 33 0.141074 0.166135 0.0165255 0
0.999835 0.0176732 -0.00413527 22 206 255 0.0804794 0.10139 0.283213 0
0.0017102 0.999998 0.000441789 162 29 33 0.0934927 0.031145 0.223919 0
0.937689 0.012551 -0.347248 19 255 8 0.309297 0.000842581 0.0139785 0
0.00553291 0.999984 -0.00117863 162 29 33 0.138852 0.132353 0.119145 0
0.000479977 -0.999999 -0.00132752 209 71 132 0.0869564 0.13239 0.239225 0
0.00453854 -0.999988 0.00185247 209 71 132 0.088821 0.132389 0.448326 0
0.999966 0.00204451 -0.00801123 102 44 145 0.242673 0.0911867 0.118663 0
0.999995 -0.00208254 0.00238869 24 90 169 0.0804552 0.0509747 0.531146 0
0.00123717 0.999999 -0.000393789 162 29 33 0.208402 0.1323 0.386304 0
0.00461082 0.999976 -0.00516457 162 29 33 0.0886762 0.132407 0.529517 0
0.00142299 0.999999 -0.000917569 162 29 33 0.087709 0.00559926 0.0401306 0
1 -0.000834261 7.1342e-05 24 90 169 0.0346484 0.123693 0.128407 0
-0.000572764 -0.99999 -0.00438302 209 71 132 0.204758 0.0175528 0.149704 0
0.999993 -0.00384022 -0.000566055 24 90 169 0.0804633 0.105271 0.54795 0
0.999999 -0.00125374 -0.000134665 24 90 169 0.21637 0.0643341 0.640823 0
2.0543e-05 -0.000127941 1 0 140 72 0.261007 0.0677313 0.174445 0
-0.998227 -0.0494393 0.0331409 36 255 14 0.162391 0.079997 0.808881 0
-0.00766694 -0.999957 -0.00525684 255 255 19 0.0948093 0.12673 0.672447 0
0.999998 -0.00183588 0.000661196 24 90 169 0.309202 0.0853079 0.0274268 0
0.00123717 0.999999 -0.000393789 162 29 33 0.206506 0.132304 0.39086 0
0.999998 -0.000267014 0.00214358 24 90 169 0.080494 0.0988536 0.544118 0
0.000871713 -0.00111434 0.999999 0 140 72 0.22673 0.117509 0.262023 0
-0.000773644 0.000118391 -1 122 195 106 0.143199 0.139186 0.0486182 0
0.999994 0.00246714 -0.00231349 24 90 169 0.0805203 0.12812 0.434262 0
0.999807 -0.0195982 -0.00159673 15 255 43 0.17056 0.0410725 0.278613 0
0.999958 0.00778301 0.00490596 24 90 169 0.0596847 0.123389 0.188236 0
1 -0.000535149 -0.000270565 24 90 169 0.0805042 0.110182 0.520408 0
0.00914365 0.999928 -0.00771557 241 90 96 0.0748172 0.044584 0.238564 0
0.737854 -0.674953 0.00311432 255 59 14 0.140653 0.0881828 0.813337 0
-0.00144491 -0.999999 -0.000924012 209 71 132 0.101403 0.0311398 0.503375 0
0.999993 0.00322812 0.00181765 24 90 169 0.0804844 0.0900273 0.320313 0
0.000255749 1 0.000334007 162 29 33 0.100303 0.0176606 0.136825 0
0.00185944 0.999998 0.000166525 162 29 33 0.191305 0.0310565 0.230923 0
-0.00555181 0.00212088 0.999982 0 140 72 0.0995041 0.0486314 0.688568 0
0.00113036 0.999999 0.00107238 162 29 33 0.114664 0.126703 0.651299 0
-0.000724667 0.00409996 0.999991 0 140 72 0.253025 0.13762 0.0486173 0
-0.00111534 -0.999999 -0.000669662 209 71 132 0.0442948 0.0314066 0.0905277 0
0.999875 0.0156971 0.00193614 244 125 35 0.0804104 0.0358358 0.502205 0
0.00795772 -0.999947 0.00660299 255 47 19 0.0825415 0.132425 0.538243 0
1 -0.000742137 -9.4873e-05 24 90 169 0.0861941 0.110784 0.630098 0
-0.00405954 0.0131678 0.999905 255 255 11 0.173082 0.00220322 0.0137845 0
0.000795609 0.999997 -0.00231831 162 29 33 0.126629 0.0311052 0.347169 0
-0.00186693 0.999998 -0.000894993 162 29 33 0.110838 0.0367947 0.664782 0
1 0.00032852 0.000654891 24 90 169 0.221886 0.122338 0.412558 0
0.00251508 0.999997 -0.000334207 162 29 33 0.147208 0.0126733 0.00979835 0
-0.00105766 -0.999999 0.000264418 209 71 132 0.142884 0.117712 0.51923 0
0.999979 -0.00318622 0.00568583 24 90 169 0.0346053 0.063576 0.0973204 0
-0.00560209 -0.999984 -0.000621492 209 71 132 0.18894 0.114652 0.692139 0
-0.000386285 1 0.000893819 162 29 33 0.183208 0.132312 0.262804 0
1 -0.0010066 -0.00013634 24 90 169 0.271127 0.11787 0.0777429 0
0.000583635 0.999989 0.00472729 162 29 33 0.185656 0.132325 0.558347 0
-0.101967 0.994157 0.0354239 255 255 33 0.104839 0.0142026 0.0330023 0
0.999997 -0.00259037 3.9611e-05 24 90 169 0.216396 0.0907637 0.649767 0
0.00218497 -0.999996 0.00161066 209 71 132 0.094781 0.132405 0.54436 0
-0.00128045 -0.999999 -0.000559933 209 71 132 0.124043 0.114715 0.708324 0
0.00165777 0.999998 -0.000836961 162 29 33 0.125233 0.0367844 0.65223 0
0.999997 0.000142274 0.00236005 24 90 169 0.242733 0.127659 0.0957049 0
1 0.000404914 -0.000391948 24 90 169 0.271054 0.0357352 0.0822307 0
-0.000138378 -0.999998 0.00178365 209 71 132 0.0641236 0.0127472 0.0383606 0
-0.0258563 0.999429 -0.0217651 4 255 131 0.14714 0.066514 0.83108 0
0.00185944 0.999998 0.000166525 162 29 33 0.197434 0.0310448 0.232649 0
0.999991 -0.00372745 -0.00200982 24 90 169 0.271144 0.118353 0.104318 0
-0.999807 -0.0163161 0.0109817 255 255 24 0.0804634 0.0873683 0.450012 0
-0.0109886 -0.999923 -0.00572824 255 255 19 0.111105 0.0176637 0.112876 0
0.999998 -0.00212294 -0.000243585 24 90 169 0.0804252 0.0344612 0.346539 0
0.000128186 0.999998 0.00192458 162 29 33 0.0909354 0.160413 0.0446744 0
0.999998 -0.00153876 0.00116836 24 90 169 0.221845 0.0891929 0.555034 0
-0.0008083 -1 -6.9396e-05 209 71 132 0.102712 0.132391 0.442461 0
0.00103976 0.999999 0.000315673 162 29 33 0.0948798 0.126724 0.666576 0
0.00282522 0.99997 0.00726526 162 29 33 0.120179 0.0311039 0.195282 0
0.00094615 1 0.000279949 162 29 33 0.19237 0.132309 0.393709 0
0.00907973 -0.00665481 -0.999937 255 255 1 0.199592 0.15606 0.0137185 0
0.999994 -0.000114029 -0.00353827 24 90 169 0.0804283 0.038343 0.507908 0
0.999988 0.00445869 -0.00225097 24 90 169 0.0597031 0.143557 0.0512741 0
-0.00278684 0.00176281 -0.999995 122 195 106 0.272003 0.0277752 0.0486051 0
-0.00143915 -0.999998 -0.00110631 209 71 132 0.155288 0.0126705 0.0350479 0
-0.999853 0.000288484 0.0171438 238 46 47 0.0804952 0.113427 0.345905 0
0.00410643 -0.999989 -0.00226495 209 71 132 0.236108 0.017544 0.138921 0
0.000358284 -0.999993 0.00379048 209 71 132 0.135034 0.132362 0.0944061 0
-0.00328944 -0.999991 0.00272317 209 71 132 0.192954 0.0310436 0.262961 0
0.999992 0.00377999 0.0010575 24 90 169 0.22183 0.0598667 0.593421 0
0.00602462 -0.00187347 0.99998 0 140 72 0.110131 0.0424446 0.688568 0
-0.00284528 -0.999996 -7.5067e-05 209 71 132 0.145281 0.0457342 0.635947 0
0.999997 -0.00239251 0.000459543 24 90 169 0.0804444 0.0427331 0.231693 0
0.737854 -0.674953 0.00311432 255 59 14 0.140891 0.0884473 0.814308 0
-0.000138207 0.999995 0.00314131 162 29 33 0.29157 0.153915 0.0455522 0
0.00116499 0.999999 -7.111e-06 162 29 33 0.18498 0.132317 0.527119 0
-0.000773644 0.000118391 -1 122 195 106 0.151813 0.14564 0.0486123 0
0.00116499 0.999999 -7.111e-06 162 29 33 0.184655 0.132317 0.528444 0
-0.0057884 -0.999983 0.00123062 209 71 132 0.177044 0.1323 0.330981 0
-0.0109785 -0.999937 -0.00226465 255 255 19 0.161169 0.0457237 0.463504 0
0.999985 0.00395018 0.00381737 24 90 169 0.221849 0.0837273 0.287914 0
0.00394437 0.999992 -0.00032964 162 29 33 0.136143 0.0457471 0.552809 0
0.999998 -0.00129876 0.00164434 24 90 169 0.187171 0.0178703 0.169666 0
0.0183113 0.998978 -0.0413119 15 255 20 0.149799 0.117725 0.29805 0
-0.000654144 1 -0.000395821 162 29 33 0.218485 0.13229 0.276168 0
0.99999 0.00381799 -0.00244038 24 90 169 0.221873 0.0876354 0.340941 0
-5.5144e-05 0.999993 0.00369346 162 29 33 0.101921 0.132408 0.383777 0
0.000599052 -0.00131913 -0.999999 122 195 106 0.314554 0.0778889 0.0137142 0
0.000750434 1 -0.000513088 162 29 33 0.219052 0.0175474 0.202294 0
0.00206754 0.999996 -0.00196281 162 29 33 0.120307 0.0311139 0.136188 0
-0.0037055 -0.999963 -0.00772279 209 71 132 0.144962 0.132355 0.168972 0
0.999995 -0.00311688 0.000213014 24 90 169 0.116713 0.136478 0.100421 0
0.00402804 -0.00365111 -0.999985 122 195 106 0.0173756 0.130555 0.0485978 0
-0.000494491 -0.999999 0.00114307 209 71 132 0.11712 0.13238 0.470058 0
0.0029119 0.999982 0.00530776 162 29 33 0.0707067 0.0176884 0.0881901 0
0.000780476 0.000135772 -1 122 195 106 0.128383 0.0890745 0.766036 0
0.999932 0.00639787 -0.00977661 102 44 145 0.0596172 0.0507627 0.216888 0
0.391961 -0.468139 -0.791967 255 255 13 0.155402 0.07057 0.886863 0
0.014888 0.999889 0.000305837 241 90 96 0.120368 0.0311167 0.568828 0
0.000133566 -0.99992 0.0126898 255 54 23 0.136492 0.0310982 0.0671863 0
0.00221481 -0.999997 0.00116821 209 71 132 0.181356 0.0367319 0.650121 0
-0.0138123 0.999847 0.0107626 255 95 13 0.0849795 0.00559472 0.0433068 0
0.0219843 -0.999657 0.0142292 30 146 255 0.238377 0.147152 0.100656 0
0.00123717 0.999999 -0.000393789 162 29 33 0.209607 0.132294 0.374239 0
1 0.000788526 -0.000556103 24 90 169 0.221797 0.0379604 0.583871 0
0.999999 -0.000438896 -0.00127616 24 90 169 0.0861487 0.059201 0.642052 0
-0.00283232 0.00832143 -0.999961 122 195 106 0.239015 0.158694 0.0195561 0
0.000327745 -2.0413e-05 -1 122 195 106 0.00621362 0.134827 0.0485984 0
-0.00377505 -0.999993 0.000281421 209 71 132 0.0456181 0.0313969 0.104534 0
0.999999 -0.00102096 4.948e-05 24 90 169 0.0346327 0.100751 0.101712 0
0.999996 -0.00268701 -0.000586491 24 90 169 0.000112028 0.0839722 0.0461159 0
0.00194248 0.999998 -0.000440862 162 29 33 0.208517 0.132296 0.33869 0
1 -0.000902136 -0.000167082 24 90 169 0.0596302 0.0697413 0.22287 0
-0.000954904 -0.999997 -0.00218897 209 71 132 0.0432948 0.132435 0.124864 0
0.00318864 0.999995 -0.000711597 162 29 33 0.102285 0.0176441 0.0895174 0
0.999999 0.00117829 0.000272327 24 90 169 0.171465 0.123757 0.283021 0
0.999904 -0.00253858 -0.0136001 102 44 145 0.152639 0.0793167 0.948212 0
-0.00129584 -0.999999 -0.000457969 209 71 132 0.154726 0.117708 0.504552 0
-0.000184204 -1 0.000917006 209 71 132 0.215206 0.0310328 0.378373 0
1 -0.000284537 0.000475267 24 90 169 0.0804716 0.0822756 0.602759 0
0.999998 0.00123689 0.00160294 24 90 169 0.221889 0.121308 0.531275 0
1 9.1772e-05 -0.000913894 24 90 169 0.271057 0.0504541 0.105155 0
0.00324065 0.00445891 -0.999985 122 195 106 0.0521994 0.0781928 0.176198 0
0.000142588 1 -0.000988519 162 29 33 0.107817 0.0311198 0.557106 0
0.0017279 0.999996 0.00241312 162 29 33 0.00616618 0.154167 0.00411568 0
0.999999 -0.001296 -7.537e-06 24 90 169 0.0804773 0.0813584 0.565988 0
-0.000451162 0.999998 0.0021543 162 29 33 0.167673 0.154014 0.0405424 0
-0.00123828 0.00158686 0.999998 0 140 72 0.283608 0.0568613 0.0485969 0
0.000963236 0.999929 0.0118923 255 194 27 0.153121 0.11771 0.654226 0
0.000544867 -0.00132019 -0.999999 122 195 106 0.178445 0.0403611 0.688558 0
-2.474e-05 -0.999999 -0.00149169 209 71 132 0.194647 0.0310611 0.490299 0
0.012292 -0.999847 -0.0124548 23 255 255 0.139014 0.0126451 0.031725 0
0.00149649 -0.999999 0.00042491 209 71 132 0.143011 0.132356 0.0702152 0
0.00022999 0.999999 0.00139289 162 29 33 0.129448 0.031106 0.32116 0
7.7166e-05 0.999997 0.00240443 162 29 33 0.133637 0.11773 0.554809 0
0.999999 -0.00123853 0.000394379 24 90 169 0.221841 0.0749126 0.393509 0
-0.000961602 -1 0.000336871 209 71 132 0.0637291 0.147323 0.195671 0
-0.000815254 9.0918e-05 1 0 140 72 0.291912 0.10242 0.0485974 0
-0.00812133 -0.999958 -0.00438262 209 71 132 0.0661637 0.0176773 0.0686655 0
0.999954 -0.00726933 -0.00629817 77 77 77 0.22183 0.0431388 0.390129 0
-0.00118937 0.999999 -0.000433946 162 29 33 0.181528 0.0310691 0.598648 0
0.000640517 -0.999995 0.0030322 209 71 132 0.125301 0.132362 0.570683 0
0.0225431 -0.999723 0.00675621 6 255 174 0.0823263 0.132298 0.597311 0
0.999997 0.00228357 -0.000411361 24 90 169 0.187185 0.0266124 0.0632458 0
0.999944 -0.0040053 0.00977618 24 90 169 0.221869 0.117659 0.302214 0
0.00176994 0.999998 -0.000495017 162 29 33 0.116772 0.132382 0.34807 0
-0.00568676 -0.999979 -0.0030647 209 71 132 0.0629975 0.0127359 0.0101877 0
0.999999 -0.000981119 -0.000651527 24 90 169 0.0596602 0.0957623 0.214745 0
0.000142588 1 -0.000988519 162 29 33 0.110013 0.0311236 0.56127 0
-0.00015651 -1 0.000867246 209 71 132 0.121832 0.048771 0.72723 0
0.999999 0.00117829 0.000272327 24 90 169 0.17146 0.126869 0.287451 0
0.999998 -0.00203575 -0.000120319 24 90 169 0.0990714 0.0809044 0.723072 0
0.999996 0.0027914 -0.000668486 24 90 169 0.170579 0.0372672 0.506155 0
0.999998 -0.00198194 4.0717e-05 24 90 169 0.0805266 0.128921 0.276629 0
-7.7343e-05 -1 0.000419621 209 71 132 0.216221 0.132292 0.463427 0
-0.00137608 0.999994 0.0031055 162 29 33 0.0522099 0.13244 0.1005 0
0.999999 -0.00102724 0.000592334 24 90 169 0.271093 0.0805745 0.138679 0
-0.289849 0.12608 -0.948732 87 6 255 0.243074 0.13426 0.0486769 0
0.00183087 0.999907 0.0134893 255 194 27 0.139678 0.0582798 0.758128 0
0.000452561 0.999999 0.0013269 162 29 33 0.161068 0.0457189 0.609555 0
0.0081337 -0.999967 -0.00010449 255 255 30 0.129542 0.053934 0.75051 0
1 -0.000186489 -0.00096972 24 90 169 0.242662 0.0556737 0.107921 0
0.999998 -0.0015515 -0.00109969 24 90 169 0.0804798 0.0799353 0.413651 0
1.7709e-05 1 0.000352024 162 29 33 0.0386497 0.132444 0.156305 0
0.999999 -0.00108258 -0.000501804 24 90 169 0.0804763 0.0766442 0.447059 0
-0.0013576 -0.999995 0.00292678 209 71 132 0.12944 0.0311097 0.1662 0
-0.980739 -0.0281683 -0.193283 23 244 255 0.202516 0.0600092 0.744016 0
0.0012489 0.999998 0.00170684 162 29 33 0.201084 0.0367095 0.662422 0
0.00169524 0.999998 0.000567031 162 29 33 0.151557 0.0310869 0.105714 0
1 -0.000916342 3.8994e-05 24 90 169 0.27112 0.115142 0.0894545 0
0.999974 -0.00372965 -0.0062442 102 44 145 0.27111 0.078399 0.0849048 0
0.000570134 -1 -0.000760889 209 71 132 0.1319 0.0126989 0.0415892 0
0.999994 -0.00344624 0.00094708 24 90 169 0.242631 0.0296515 0.195836 0
1 -0.000293438 0.000573423 24 90 169 0.21639 0.082217 0.610798 0
-0.000150081 -1 9.2562e-05 209 71 132 0.117351 0.132382 0.296496 0
0.00466589 0.999952 -0.00863543 182 160 96 0.201542 0.132305 0.324889 0
-0.00132592 -0.999998 -0.00132609 209 71 132 0.193691 0.0310507 0.395046 0
-0.0155431 0.999764 0.0152082 255 95 13 0.129537 0.132366 0.0649467 0
0.000638259 1 -0.000712838 162 29 33 0.0355922 0.0127765 0.00764886 0
0.00163903 0.999998 -0.00141827 162 29 33 0.109005 0.132379 0.548421 0
1 -0.00069022 4.4438e-05 24 90 169 0.0804461 0.0466628 0.47202 0
-0.994913 -0.0927546 -0.0393086 255 26 255 0.221851 0.0916545 0.452221 0
0.999995 -0.00234195 -0.00193689 24 90 169 0.221895 0.127102 0.54116 0
0.00446963 0.00307416 0.999985 0 140 72 0.106409 0.131147 0.608309 0
0.00190835 0.999998 -0.000613714 162 29 33 0.106782 0.0311293 0.309073 0
0.000715739 0.999996 0.00265095 162 29 33 0.150916 0.117709 0.494954 0
0.999995 -0.00322778 -1.7285e-05 24 90 169 0.242719 0.123632 0.0712743 0
-7.7343e-05 -1 0.000419621 209 71 132 0.200053 0.1323 0.480774 0
1 0.000642142 0.000167108 24 90 169 0.000117476 0.100915 0.00144298 0
0.999995 0.000701008 -0.0031683 24 90 169 0.242679 0.0883135 0.178314 0
-0.000972587 -1 0.000175539 209 71 132 0.157679 0.117705 0.584122 0
0.00157253 0.00273629 -0.999995 122 195 106 0.233588 0.102567 0.262008 0
0.999998 0.00130402 -0.00147454 24 90 169 0.0346144 0.0821313 0.129383 0
-0.00278403 -0.999918 0.0124939 255 54 23 0.0797217 0.154103 0.0111172 0
0.999999 -0.000957948 -0.00041749 24 90 169 0.271136 0.129163 0.150948 0
-0.00049985 -1 0.000167059 209 71 132 0.0568885 0.132435 0.0662118 0
0.999999 -0.000930377 0.000588166 24 90 169 0.0346299 0.0978844 0.0523978 0
-0.000917261 -0.0073869 -0.999972 122 195 106 0.157799 0.161836 0.019564 0
0.999998 -0.00184021 -9.9617e-05 24 90 169 0.221847 0.0789511 0.480432 0
1 -8.7728e-05 -0.000108918 24 90 169 0.242674 0.0794549 0.136833 0
-0.00107144 0.00197603 -0.999997 122 195 106 0.0107674 0.02026 0.0486019 0
0.999969 0.00497409 0.00604335 24 90 169 0.0804669 0.0679968 0.580081 0
0.00118414 0.999999 -0.00104057 162 29 33 0.189331 0.0367181 0.616867 0
0.999999 -0.00104322 -0.000586075 24 90 169 0.271112 0.0998294 0.125216 0
-0.00113973 -0.999999 0.000615116 209 71 132 0.178704 0.132317 0.223131 0
-0.00232095 -0.999997 -0.000573026 209 71 132 0.226541 0.147175 0.143467 0
-0.00464601 -0.00852506 0.999953 255 171 37 0.252443 0.0700154 0.17442 0
0.99994 -0.0108718 0.00095626 77 77 77 0.131819 0.120714 0.379244 0
-0.999003 0.0239162 0.0376899 141 255 29 0.221864 0.0775367 0.547573 0
-0.00123763 0.999998 -0.00129937 162 29 33 0.20057 0.132317 0.505185 0
0.999993 -0.00313317 0.00195632 24 90 169 0.22185 0.10004 0.376169 0
-0.000994808 -1 0.000116135 209 71 132 0.218345 0.132286 0.520093 0
0.999987 -0.00499602 -0.000569079 24 90 169 6.68093e-05 0.0524969 0.0276908 0
0.000645567 0.999999 -0.000847529 162 29 33 0.124024 0.132364 0.415607 0
0.00259757 0.999997 -0.000365181 162 29 33 0.122349 0.0311238 0.0898606 0
0.999999 -0.00124369 -0.000175326 24 90 169 0.0805118 0.116331 0.588227 0
0.999996 0.00285669 0.000741811 24 90 169 0.271054 0.0367172 0.0540716 0
0.000805228 1 0.000370391 162 29 33 0.161783 0.117701 0.444814 0
0.000480004 1 -0.000796162 162 29 33 0.151708 0.117721 0.363188 0
-0.00143915 -0.999998 -0.00110631 209 71 132 0.156356 0.01267 0.0341269 0
0.999998 -0.000406382 0.00195792 24 90 169 0.0595934 0.025405 0.134547 0
0.999993 0.00340103 -0.00145644 24 90 169 0.145505 0.0786066 0.941599 0
1 -0.000728485 -0.00044034 24 90 169 0.221809 0.0432463 0.463304 0
0.00803076 0.00531328 0.999954 0 140 72 0.0608397 0.110734 0.26203 0
-0.0014478 0.000646428 -0.999999 122 195 106 0.053527 0.0691859 0.176188 0
0.00634946 0.999978 -0.00176854 162 29 33 0.154538 0.0457251 0.285851 0
0.000231938 0.999999 -0.00100653 162 29 33 0.197329 0.03104 0.366641 0
0.999997 -0.00111501 -0.00201823 24 90 169 0.221853 0.0870073 0.496706 0
0.999996 -0.00226062 0.00144701 24 90 169 0.0804432 0.042981 0.283584 0
0.00201118 -0.999998 0.000433519 209 71 132 0.219904 0.132289 0.59686 0
0.00128622 0.999999 0.00042762 162 29 33 0.107808 0.0311309 0.375672 0
-0.00158534 -0.999998 -0.00150268 209 71 132 0.133878 0.0311062 0.0902978 0
0.999998 -0.00208592 0.000673955 24 90 169 0.116732 0.139261 0.201292 0
-0.00249043 -0.000900146 -0.999996 122 195 106 0.00834546 0.146044 0.0485904 0
0.999985 0.00544077 -0.000621103 24 90 169 0.271109 0.100106 0.160116 0
-0.00123369 -0.999999 -0.00093846 209 71 132 0.173644 0.0457129 0.665049 0
0.999904 0.0130287 0.00481725 244 125 35 0.0346499 0.111443 0.10627 0
0.99998 0.00625884 0.000277109 24 90 169 0.131831 0.122184 0.389292 0
0.999997 -0.000748764 -0.00227327 24 90 169 0.242684 0.0769436 0.200671 0
0.00123717 0.999999 -0.000393789 162 29 33 0.204273 0.132299 0.371813 0
2.0543e-05 -0.000127941 1 0 140 72 0.259369 0.0587139 0.174444 0
-0.00111638 -0.999998 0.00180642 209 71 132 0.163647 0.0310541 0.235277 0
-0.0117941 0.0234795 -0.999655 31 255 255 0.103322 0.101141 0.745681 0
0.000636066 1 -0.000417431 162 29 33 0.177935 0.132323 0.396248 0
0.999992 -0.00330713 -0.00241155 24 90 169 0.311679 0.096475 0.00573397 0
0.999999 -0.000957948 -0.00041749 24 90 169 0.271118 0.112379 0.146784 0
1 0.000788526 -0.000556103 24 90 169 0.2218 0.0354053 0.586213 0
-0.00291825 0.999895 0.0142206 255 194 27 0.103622 0.13239 0.280976 0
1 -0.000758503 -0.000220688 24 90 169 0.221869 0.110111 0.360301 0
0.99999 -0.00379046 -0.00255364 24 90 169 0.187299 0.139875 0.187202 0
-0.999248 0.0269361 -0.0278775 255 255 15 0.216265 0.0773816 0.687736 0
0.999987 -0.00483846 -0.00177688 24 90 169 0.221893 0.120681 0.462892 0
0.000959093 1 -0.00033949 162 29 33 0.0894432 0.0311481 0.297448 0
1 0.00088774 -0.000487825 24 90 169 0.242634 0.0206571 0.101171 0
0.00165875 0.999995 0.00257615 162 29 33 0.167806 0.132341 0.0722378 0
-0.000184204 -1 0.000917006 209 71 132 0.206694 0.0310361 0.380284 0
-0.000875114 -1 -0.000234619 209 71 132 0.157217 0.132343 0.174287 0
-0.00266442 0.00197977 -0.999995 122 195 106 0.276878 0.00430385 0.0137095 0
0.999999 -0.000718737 -0.00138232 24 90 169 0.0345768 0.045031 0.154441 0
0.000918519 0.00174143 0.999998 0 140 72 0.289549 0.145345 0.0486028 0
0.999999 -0.0004141 -0.00121034 24 90 169 0.202495 0.0723503 0.702091 0
-0.00411898 -0.999987 0.00304706 209 71 132 0.111816 0.0487925 0.732509 0
0.999997 -0.00107958 -0.00204178 24 90 169 0.202484 0.0554646 0.733579 0
-0.00387001 -0.999967 -0.00715436 209 71 132 0.0643689 0.147323 0.155277 0
0.00536355 0.999946 0.0088949 255 194 27 0.105722 0.0311286 0.569184 0
0.00123619 0.999999 3.8841e-05 162 29 33 0.143355 0.0310955 0.201028 0
0.00230054 0.00205769 0.999995 0 140 72 0.317141 0.148486 0.0137219 0
-0.000464886 0.999999 0.0012424 162 29 33 0.20109 0.0310445 0.425318 0
0.999999 -0.000533536 0.00097401 24 90 169 0.0804808 0.0801573 0.54138 0
-0.00200648 0.999991 -0.00372266 162 29 33 0.173416 0.132328 0.470514 0
-0.000357562 -1 -0.000382671 209 71 132 0.0508485 0.0127489 0.0400583 0
0.000613303 1 9.7524e-05 162 29 33 0.0870368 0.147303 0.14768 0
0.350518 -0.089865 -0.932235 255 218 2 0.114951 0.0111645 0.0132393 0
0.999998 -0.00111882 -0.00146498 24 90 169 0.0804871 0.0919017 0.349998 0
-0.000183759 1 0.000904951 162 29 33 0.0973878 0.0311437 0.438408 0
-0.00215456 -0.999996 -0.00191568 209 71 132 0.125934 0.031108 0.588413 0
0.999996 -0.00241839 0.00119515 24 90 169 0.0804615 0.0629891 0.593886 0
0.999993 -0.00108548 0.00371225 24 90 169 0.242652 0.052956 0.25051 0
1 -0.000763115 -0.000419242 24 90 169 0.0804671 0.0649715 0.300379 0
0.999999 -0.00100002 0.000786655 24 90 169 0.221835 0.0692604 0.534085 0
-0.00419579 0.0207269 -0.999776 31 255 255 0.264631 0.157318 0.0195374 0
0.00393897 -0.999992 0.000190906 209 71 132 0.188034 0.0310468 0.351567 0
-0.000590571 -1 0.00031085 209 71 132 0.114458 0.0311231 0.329973 0
0.99997 0.00369079 0.0067779 24 90 169 0.0804503 0.0636003 0.579461 0
-0.0811775 0.996058 0.0357589 17 255 144 0.194509 0.048701 0.69462 0
-0.00412296 -0.999985 -0.00360177 209 71 132 0.0812894 0.0176675 0.159531 0
-0.000461436 1 0.000238358 162 29 33 0.194718 0.147201 0.0713268 0
1 -8.7728e-05 -0.000108918 24 90 169 0.242674 0.0642836 0.14662 0
-0.000972587 -1 0.000175539 209 71 132 0.15529 0.117707 0.584231 0
0.999997 -0.0016196 0.00194746 24 90 169 0.000118643 0.102868 0.0138601 0
0.00129386 -0.000985753 0.999999 0 140 72 0.258036 0.0444156 0.174435 0
1 -0.000903538 -2.8008e-05 24 90 169 0.271102 0.0910277 0.0876839 0
0.21443 -0.952457 0.216439 155 9 255 0.0903364 0.0310909 0.558575 0
0.00382687 0.999992 0.00141607 162 29 33 0.138924 0.0457315 0.356998 0
0.999952 0.00443606 0.00879062 24 90 169 0.0861309 0.0392315 0.648428 0
-0.00155809 0.999999 -0.000416166 162 29 33 0.116501 0.147284 0.173648 0
-0.000961602 -1 0.000336871 209 71 132 0.0719181 0.147311 0.183217 0
-0.0105172 -0.999828 0.0152803 255 207 24 0.185421 0.132312 0.246094 0
-0.000741583 -0.999996 -0.00287181 209 71 132 0.19876 0.132314 0.292664 0
