ply
format ascii 1.0
comment Aron generated
element vertex 868
property float x
property float y
property float z
property float nx
property float ny
property float nz
end_header
0.236721 0.277938 1.02058 -0.784523 -0.295988 -0.5449
0.240633 0.278025 1.02001 -0.793241 -0.28118 -0.540099
0.241313 0.274433 1.00595 -0.805319 -0.268864 -0.528368
0.244762 0.273984 1.00351 -0.801714 -0.260156 -0.53812
0.247195 0.272496 0.997118 -0.792988 -0.270343 -0.545971
0.251042 0.272554 0.996509 0.791599 0.264528 0.550813
0.253928 0.27158 0.992012 -0.793142 -0.255955 -0.552641
0.256406 0.27024 0.98615 -0.786846 -0.254563 -0.562202
0.261401 0.271519 0.989967 -0.7893 -0.253414 -0.559273
0.261187 0.267461 0.974182 -0.807276 -0.272747 -0.523369
0.262457 0.264982 0.964289 0.823494 0.269297 0.499336
0.268311 0.267134 0.971218 -0.821586 -0.274671 -0.499552
0.268315 0.263514 0.957054 -0.835204 -0.274147 -0.476737
0.274988 0.266421 0.966679 -0.831089 -0.27171 -0.485247
0.276311 0.264166 0.957461 -0.835241 -0.266399 -0.481044
0.276918 0.261264 0.946028 -0.836329 -0.280474 -0.471051
0.281078 0.261745 0.94682 -0.835744 -0.27595 -0.474746
0.285624 0.262628 0.948951 -0.83736 -0.267674 -0.476632
0.287313 0.260835 0.941497 -0.84682 -0.254875 -0.466835
0.289113 0.259185 0.934543 -0.856572 -0.25126 -0.450724
0.291148 0.257812 0.928627 -0.859669 -0.259254 -0.440179
0.290518 0.254113 0.91429 -0.874737 -0.249427 -0.415477
0.297315 0.256946 0.923492 -0.831414 -0.283624 -0.477815
0.29823 0.254693 0.914243 -0.827393 -0.293203 -0.479012
0.296564 0.25031 0.897511 0.880616 0.258899 0.396847
0.305421 0.254806 0.912588 -0.775279 -0.329308 -0.538979
0.306662 0.252893 0.904668 -0.754514 -0.351086 -0.554479
0.304185 0.248016 0.886172 -0.788931 -0.327426 -0.519982
0.303489 0.244682 0.873228 -0.825803 0.264059 0.49832
0.314656 0.250851 0.894259 -0.647918 -0.404683 -0.645317
0.317055 0.249998 0.890133 -0.570006 -0.410565 -0.711709
0.326167 0.2544 0.904669 -0.143857 0.579623 0.802086
0.331557 0.255859 0.908682 -0.352189 0.496897 0.793131
0.329762 0.251777 0.89306 -0.478623 0.463468 0.745732
0.341081 0.257687 0.912809 -0.631537 0.358962 0.687246
0.347085 0.259493 0.918124 -0.73444 0.319306 0.598867
0.337208 0.249517 0.881651 -0.609047 0.4025 0.683415
0.353796 0.259149 0.914435 -0.773636 0.283149 0.566845
-0.371056 0.269201 0.933193 -0.619392 0.405383 0.672323
-0.364078 0.266802 0.92604 0.502118 -0.440069 -0.744457
-0.352411 0.26085 0.90666 0.0787248 -0.514471 -0.853887
-0.35619 0.266358 0.926965 -0.428458 0.43238 0.793392
-0.361699 0.273278 0.952321 -0.577337 0.421703 0.699178
-0.35037 0.267463 0.933301 -0.471191 0.438692 0.765198
-0.350797 0.27065 0.945539 -0.539896 0.461963 0.703635
-0.34803 0.271382 0.949327 -0.527014 0.456028 0.717144
-0.34466 0.271629 0.951389 -0.51328 0.455804 0.727177
-0.339565 0.270531 0.948736 0.509006 -0.474614 -0.718091
-0.334043 0.269097 0.944784 0.513571 -0.46022 -0.724184
-0.332308 0.270681 0.951508 0.522876 -0.460235 -0.717485
-0.326346 0.268819 0.946116 -0.521669 0.470611 0.711609
-0.322125 0.268364 0.945635 -0.539166 0.465575 0.701812
-0.317671 0.267701 0.944416 -0.536206 0.472433 0.699493
-0.318875 0.271874 0.960239 -0.5335 0.429535 0.728613
-0.316464 0.272998 0.965315 0.529048 -0.426867 -0.733412
-0.308394 0.269207 0.952972 0.550831 -0.416048 -0.723525
-0.309318 0.2733 0.968534 -0.530706 0.420463 0.735909
-0.306501 0.274118 0.972478 -0.564663 0.393599 0.725421
-0.302272 0.273705 0.972057 0.552341 -0.41301 -0.724115
-0.299209 0.274289 0.97526 0.541572 -0.424357 -0.725687
-0.296896 0.275646 0.981135 0.555748 -0.425012 -0.714499
-0.293886 0.276381 0.984741 0.54487 -0.455523 -0.704
-0.289989 0.276259 0.985295 0.540125 -0.456522 -0.707003
-0.282017 0.272199 0.971901 0.573887 -0.437471 -0.692295
-0.282703 0.276531 0.988325 0.53892 -0.440685 -0.717887
-0.274361 0.272028 0.973173 0.534562 -0.474788 -0.699157
-0.274619 0.276013 0.988466 -0.537452 0.429991 0.725433
-0.268306 0.273445 0.980183 -0.531861 0.467728 0.705942
-0.265863 0.27477 0.985931 -0.512318 0.44052 0.737206
-0.265852 0.278716 1.00099 -0.508402 0.448352 0.735193
-0.261977 0.278633 1.0017 -0.494076 0.446852 0.745797
-0.257897 0.278359 1.00158 -0.497744 0.437657 0.748804
-0.253377 0.277561 0.999658 -0.49595 0.438021 0.749781
-0.249787 0.277842 1.0015 0.495344 -0.449052 -0.743631
-0.247166 0.279155 1.00718 -0.486991 0.443872 0.752208
-0.247355 0.283767 1.02463 -0.532284 0.416954 0.736765
-0.235635 0.27465 0.992616 -0.508514 0.46377 0.725487
-0.237649 0.281464 1.01814 0.495608 -0.440118 -0.748778
-0.232117 0.279453 1.01163 -0.483149 0.453931 0.748675
-0.230242 0.281856 1.02119 0.488562 -0.464012 -0.738918
-0.223368 0.278076 1.00834 -0.495583 0.460486 0.736444
-0.22146 0.280529 1.01797 -0.501799 0.468241 0.727289
-0.217726 0.28064 1.0192 -0.492525 0.472674 0.730752
-0.216832 0.284523 1.0341 -0.481408 0.47505 0.736596
-0.211265 0.282261 1.02671 0.485897 -0.486645 -0.726003
-0.207823 0.282851 1.02962 -0.468733 0.495656 0.731173
-0.206138 0.285889 1.04136 -0.466003 0.500263 0.72978
-0.199073 0.28145 1.02592 0.462503 -0.494264 -0.736066
-0.199211 0.287172 1.04755 -0.434012 0.520595 0.735265
-0.192477 0.283068 1.03331 -0.452292 0.512645 0.729813
-0.188788 0.283315 1.03491 -0.455855 0.511184 0.72862
-0.186932 0.286431 1.047 0.461658 -0.50446 -0.729652
-0.182083 0.284998 1.04246 0.445629 -0.511455 -0.73473
-0.17629 0.281938 1.03193 0.434501 -0.497808 -0.750597
-0.174784 0.285806 1.04676 0.416333 -0.501929 -0.758112
-0.170172 0.284656 1.04318 0.3761 -0.505451 -0.776574
-0.166514 0.285027 1.04518 -0.301386 0.520884 0.798653
-0.163243 0.286154 1.04991 -0.261146 0.541898 0.798843
-0.16094 0.289074 1.06124 -0.216207 0.544918 0.810135
-0.15888 0.292527 1.0745 0.268252 -0.519723 -0.811128
-0.152524 0.288108 1.05884 0.0180629 0.545353 0.838012
-0.148258 0.287508 1.05721 -0.238355 -0.532205 -0.81237
-0.140889 0.28069 1.03267 -0.570855 -0.450122 -0.686669
-0.138919 0.284481 1.04715 -0.529404 -0.473228 -0.704122
-0.131451 0.276976 1.02001 -0.781203 -0.346738 -0.51913
-0.129624 0.281265 1.0363 -0.730537 -0.402677 -0.551514
-0.12426 0.277832 1.02411 -0.798033 -0.337157 -0.499468
-0.119646 0.275988 1.01777 -0.818332 -0.330546 -0.470183
-0.115201 0.274428 1.01246 0.821973 0.3189 0.471872
-0.108078 0.266165 0.982385 -0.854165 -0.28776 -0.433125
-0.107552 0.274059 1.01194 -0.826236 -0.322705 -0.461731
-0.100774 0.266097 0.982913 0.851201 0.280949 0.443311
-0.097169 0.266232 0.983786 -0.855908 -0.283786 -0.432303
-0.094107 0.267831 0.990041 -0.846496 -0.280742 -0.45236
-0.087433 0.258926 0.957571 -0.852204 -0.259148 -0.454523
-0.085358 0.263496 0.974782 -0.851365 -0.284623 -0.440644
-0.079774 0.257061 0.951278 -0.859928 -0.253631 -0.442938
-0.077746 0.262128 0.970334 0.842874 0.274748 0.462684
-0.07316 0.25864 0.957696 -0.861304 -0.25486 -0.439547
-0.067888 0.25225 0.934302 -0.804508 -0.328323 -0.494946
-0.06391 0.25012 0.926649 0.783539 0.333555 0.524221
-0.05853 0.242076 0.897074 -0.0536172 0.537325 0.841669
-0.055174 0.241936 0.896753 -0.414024 0.456178 0.787709
-0.052615 0.245364 0.909661 -0.244258 -0.493512 -0.834736
-0.048928 0.243779 0.903987 -0.367503 0.473105 0.800696
-0.045424 0.242916 0.901063 0.457814 -0.449998 -0.766752
-0.043359 0.250086 0.927835 0.16246 -0.549094 -0.819819
-0.039763 0.249072 0.924219 0.400047 -0.482848 -0.778987
-0.036135 0.247651 0.919091 -0.443288 0.467305 0.764933
-0.032623 0.246594 0.915283 0.471553 -0.454014 -0.755982
-0.029137 0.24576 0.912304 0.476735 -0.453398 -0.753097
-0.025615 0.244358 0.907213 0.47582 -0.465344 -0.746358
-0.022145 0.242801 0.901519 0.473433 -0.458842 -0.751881
-0.018921 0.244225 0.906863 0.495875 -0.465417 -0.73314
-0.016033 0.251543 0.934124 -0.547047 0.485705 0.681784
-0.012335 0.24609 0.913903 -0.532087 0.48357 0.695013
-0.009137 0.251097 0.932559 -0.55347 0.500141 0.665981
-0.005739 0.253321 0.940848 0.539985 -0.490991 -0.683626
-0.00229 0.253329 0.940877 0.537489 -0.489178 -0.686885
0.00119 0.253383 0.941078 -0.540506 0.483402 0.688604
0.004686 0.254257 0.944322 0.529735 -0.48751 -0.694057
0.008155 0.254478 0.945114 -0.521154 0.488355 0.699935
0.011659 0.254669 0.945793 -0.511661 0.495405 0.701981
0.015343 0.25781 0.957399 -0.503916 0.493371 0.70898
0.018707 0.255803 0.949885 -0.520973 0.493017 0.696794
0.022602 0.260197 0.966141 0.531386 -0.48852 -0.692082
0.025703 0.255501 0.948615 0.52449 -0.503612 -0.686502
0.029346 0.256935 0.953817 0.523916 -0.489642 -0.696966
0.03312 0.258852 0.960814 0.54105 -0.494835 -0.680003
0.036529 0.258038 0.957668 0.541292 -0.499111 -0.676677
0.039978 0.257426 0.955246 0.547404 -0.49719 -0.673165
0.044012 0.260373 0.966028 -0.545608 0.464653 0.69743
0.047981 0.262525 0.97386 0.553553 -0.450744 -0.700292
0.051856 0.264082 0.979335 -0.540343 0.457212 0.70639
0.054507 0.259439 0.961904 0.568004 -0.459193 -0.683018
0.058984 0.263526 0.976871 -0.536465 0.464882 0.704336
0.063015 0.265393 0.983542 -0.528823 0.456045 0.715799
0.066534 0.264892 0.981469 0.516686 -0.46873 -0.716469
0.070032 0.264365 0.979236 -0.513174 0.465664 0.720978
0.073488 0.26385 0.97708 -0.506395 0.458225 0.730475
0.077853 0.266387 0.986195 0.497941 -0.449867 -0.7414
0.08204 0.268117 0.992287 -0.502437 0.456506 0.734275
0.086291 0.269997 0.998927 -0.478632 0.461436 0.746986
0.088859 0.266576 0.985956 -0.508594 0.457372 0.729481
0.09289 0.267676 0.989562 0.484717 -0.455431 -0.746748
0.09843 0.272934 1.00865 -0.464098 0.456525 0.759077
0.102281 0.27321 1.00932 -0.478926 0.457963 0.748933
0.104985 0.270511 0.998932 0.46944 -0.47074 -0.747014
0.110026 0.273813 1.01074 0.468684 -0.482225 -0.740132
0.113418 0.273003 1.00733 0.470741 -0.474942 -0.743527
0.11739 0.273525 1.00884 -0.467102 0.475954 0.745173
0.121612 0.274578 1.01228 -0.467883 0.4877 0.737045
0.124537 0.272796 1.00526 -0.470234 0.480863 0.740034
0.130362 0.277219 1.02107 -0.444229 0.487498 0.751669
0.135232 0.279415 1.02866 -0.457185 0.476936 0.750676
0.135998 0.273247 1.00545 -0.434921 0.491424 0.75455
0.142323 0.278341 1.02366 -0.445426 0.482781 0.754002
0.147296 0.280534 1.03121 -0.441676 0.482825 0.756176
0.148616 0.275835 1.01338 -0.444383 0.496228 0.745843
0.155074 0.280727 1.03076 0.407102 -0.503648 -0.761976
0.158234 0.279501 1.0257 0.410946 -0.511149 -0.754884
0.163146 0.281353 1.03187 0.429763 -0.490066 -0.758379
0.166603 0.280725 1.02897 -0.411514 0.504742 0.758876
0.170894 0.281444 1.03098 0.39896 -0.495479 -0.771577
0.175879 0.283248 1.03692 -0.341507 0.507244 0.79125
0.181129 0.285445 1.0443 0.272459 -0.527811 -0.804476
0.185949 0.286834 1.0487 -0.220107 0.537243 0.814201
0.190952 0.288442 1.05388 -0.13435 0.53798 0.832182
0.193802 0.286849 1.04731 -0.0421169 0.518429 0.854083
0.197616 0.286667 1.04594 -0.0587754 -0.518499 -0.853056
0.202481 0.287989 1.04999 -0.168141 -0.516373 -0.839695
0.206657 0.288345 1.05054 -0.25756 -0.517988 -0.815691
0.210636 0.288339 1.04986 -0.419811 -0.436898 -0.795537
0.213217 0.286532 1.04248 -0.483204 -0.398618 -0.779499
0.214185 0.282617 1.02744 -0.603385 -0.411599 -0.683018
0.220817 0.286226 1.03975 -0.616833 -0.3414 -0.709199
0.21987 0.280014 1.01637 0.728305 0.32092 0.60546
0.228391 0.285875 1.03689 -0.724821 -0.314376 -0.613027
0.230685 0.283866 1.02877 0.777622 0.287942 0.558922
0.23299 0.281977 1.02103 -0.785351 -0.277796 -0.553221
0.233072 0.277503 1.00398 -0.794149 -0.285626 -0.536419
0.233896 0.273972 0.990424 -0.785697 -0.277445 -0.552906
0.2441 0.281435 1.01651 -0.80366 -0.281763 -0.524156
0.2437 0.276598 0.998248 -0.790464 -0.265729 -0.551865
0.244344 0.273072 0.98459 0.785895 0.268637 0.556959
0.249078 0.274188 0.987683 0.788457 0.263368 0.555854
0.253907 0.275344 0.991024 0.789612 0.256183 0.557569
0.256071 0.273648 0.983956 -0.796166 -0.256227 -0.54815
0.258793 0.272557 0.979188 -0.802355 -0.261169 -0.536672
0.260685 0.270666 0.97141 -0.816818 -0.276984 -0.506052
0.261812 0.268013 0.961027 0.823566 0.266739 0.500589
0.266185 0.268711 0.96263 -0.825732 -0.264116 -0.498408
0.269368 0.268233 0.959911 -0.838539 -0.25441 -0.481796
0.274967 0.270112 0.965699 -0.832846 -0.265757 -0.485531
0.275055 0.266629 0.952214 0.840215 0.268039 0.471375
0.282712 0.270447 0.964914 0.830058 0.273191 0.48618
0.280593 0.264933 0.944295 -0.836799 -0.261517 -0.481017
0.282018 0.262865 0.935952 0.843275 0.264964 0.467633
0.282452 0.259994 0.924692 0.851946 0.258821 0.455192
0.291354 0.264833 0.940893 -0.844066 -0.262747 -0.467457
0.290182 0.260536 0.924633 -0.865242 -0.2538 -0.432367
0.290303 0.257462 0.91274 -0.870435 -0.24875 -0.424814
0.298659 0.261704 0.926779 -0.832384 -0.277667 -0.479623
0.297794 0.257833 0.912027 -0.829755 -0.283828 -0.480571
0.305018 0.261001 0.922206 -0.794155 -0.298182 -0.529533
0.307159 0.259795 0.916893 -0.770824 -0.322524 -0.549371
0.307428 0.257026 0.906048 -0.7608 -0.344063 -0.550277
0.30665 0.253479 0.892485 -0.776557 -0.316879 -0.544561
0.307035 0.250961 0.88257 -0.729887 -0.334139 -0.596335
0.314933 0.254571 0.894174 0.668791 0.375778 0.64149
0.312459 0.249809 0.876345 -0.449663 0.415658 0.790589
0.318006 0.251516 0.881222 -0.424746 0.452163 0.784308
0.332175 0.259878 0.90948 -0.319347 0.475799 0.819532
0.329972 0.255418 0.892716 -0.443156 0.471099 0.762679
0.346333 0.265271 0.92595 -0.742714 0.330846 0.582166
0.352845 0.267445 0.932403 -0.846982 0.235874 0.47643
0.356081 0.267147 0.930121 -0.872935 0.181609 0.452772
0.363353 0.269828 0.9382 -0.930896 0.100053 0.351315
-0.370174 0.272225 0.930008 0.627067 -0.393634 -0.67219
-0.367018 0.272625 0.932585 -0.613137 0.409022 0.675844
-0.361677 0.271384 0.92962 -0.478493 0.428907 0.766214
-0.362767 0.275 0.943194 -0.564947 0.415116 0.713101
-0.351163 0.268936 0.923632 -0.441702 0.470144 0.76411
-0.346767 0.268377 0.922841 -0.451132 0.475527 0.755218
-0.34898 0.272919 0.939682 -0.533139 0.445935 0.718961
-0.341094 0.269599 0.929459 -0.460158 0.46709 0.755038
-0.342977 0.274045 0.945901 -0.509713 0.455414 0.729925
-0.33918 0.27394 0.946733 0.498428 -0.472178 -0.727061
-0.335046 0.273583 0.94666 0.520582 -0.452953 -0.72376
-0.334979 0.276575 0.958189 -0.532515 0.446476 0.719087
-0.325725 0.271964 0.943366 -0.513177 0.453384 0.728761
-0.318342 0.268827 0.933592 0.561671 -0.447571 -0.695849
-0.320094 0.273419 0.950667 -0.54982 0.449901 0.703766
-0.317184 0.274149 0.954193 0.552059 -0.431884 -0.713237
-0.315646 0.276034 0.961861 -0.53504 0.416476 0.735037
-0.311293 0.275473 0.960977 0.542647 -0.413259 -0.731267
-0.304927 0.273091 0.953839 0.553451 -0.404123 -0.72827
-0.305639 0.277071 0.968816 0.561673 -0.381624 -0.734089
-0.300738 0.276026 0.966171 -0.550707 0.400611 0.732279
-0.29916 0.278012 0.974171 -0.541181 0.412618 0.732714
-0.292089 0.274909 0.9643 -0.54081 0.391748 0.744351
-0.288174 0.274703 0.964583 0.55498 -0.412777 -0.722227
-0.287706 0.277818 0.976615 0.558 -0.429028 -0.710331
-0.28506 0.278917 0.981433 -0.55766 0.432918 0.708235
-0.278558 0.276221 0.972919 0.548435 -0.441426 -0.710185
-0.284311 0.285768 1.00749 -0.510346 0.413448 0.754061
-0.277317 0.282557 0.997249 0.520981 -0.404926 -0.751408
-0.271315 0.280312 0.990219 -0.529307 0.435666 0.728031
-0.264132 0.276734 0.978605 -0.526396 0.462969 0.713139
-0.2621 0.27856 0.98595 -0.520049 0.45401 0.72348
-0.262648 0.28322 1.00331 -0.504608 0.442345 0.741418
-0.25445 0.278415 0.987256 -0.482188 0.45948 0.745904
-0.252742 0.280705 0.996238 -0.490838 0.454139 0.743529
-0.246687 0.278131 0.988037 -0.494078 0.463732 0.735418
-0.248453 0.284431 1.01137 -0.487886 0.43653 0.755916
-0.240595 0.279808 0.995727 0.497013 -0.448781 -0.74268
-0.241001 0.284729 1.01416 -0.491396 0.443024 0.74984
-0.235648 0.282928 1.00852 0.495564 -0.449477 -0.743227
-0.230811 0.281704 1.00503 0.475408 -0.456556 -0.752027
-0.228271 0.283248 1.01139 0.490932 -0.459722 -0.740027
-0.224698 0.283573 1.01329 -0.489535 0.462047 0.739506
-0.220946 0.283689 1.01456 -0.495314 0.462243 0.735524
-0.219148 0.286319 1.02479 0.49567 -0.478521 -0.724796
-0.214762 0.285644 1.02317 0.486872 -0.48157 -0.72873
-0.209841 0.284208 1.0187 0.479279 -0.491933 -0.726838
-0.207352 0.286085 1.02622 -0.471587 0.495468 0.729463
-0.20477 0.287858 1.03335 0.466768 -0.496667 -0.731744
-0.201093 0.288176 1.03526 0.456005 -0.510543 -0.728976
-0.195865 0.286193 1.0289 -0.457246 0.495177 0.738733
-0.193944 0.289141 1.04008 -0.460792 0.500163 0.733149
-0.188756 0.287207 1.03385 -0.472046 0.496744 0.728298
-0.188005 0.292032 1.05193 -0.475284 0.50717 0.718946
-0.180367 0.286188 1.03158 0.4394 -0.497648 -0.747846
-0.17843 0.289279 1.04339 0.430656 -0.505147 -0.747905
-0.17503 0.290137 1.04712 0.417145 -0.501187 -0.758157
-0.169138 0.286811 1.03578 -0.34254 0.513913 0.786485
-0.164618 0.28565 1.03222 0.230046 -0.519901 -0.822667
-0.164528 0.292367 1.0571 -0.279641 0.528584 0.801498
-0.160809 0.292805 1.05929 0.214871 -0.543275 -0.811593
-0.156439 0.291989 1.05691 0.0975406 -0.535008 -0.839198
-0.152523 0.292063 1.05776 -0.0313586 -0.534867 -0.844354
-0.145327 0.285693 1.03525 0.445497 0.483336 0.753604
-0.142424 0.287644 1.04285 -0.487647 -0.474298 -0.732968
-0.139393 0.289372 1.04965 -0.507498 -0.490401 -0.708486
-0.136669 0.291925 1.05942 0.551545 0.445427 0.705261
-0.129907 0.285748 1.0375 -0.712099 -0.405969 -0.572804
-0.124437 0.282047 1.02452 -0.791417 -0.336076 -0.510599
-0.121397 0.283873 1.03161 0.78802 0.341539 0.512226
-0.116478 0.281279 1.02264 0.806689 0.331233 0.489426
-0.109329 0.272864 0.992458 -0.844996 -0.300279 -0.442509
-0.105392 0.272241 0.990601 0.851745 0.287406 0.438096
-0.100792 0.269799 0.982091 -0.85362 -0.289301 -0.433171
-0.098564 0.27376 0.996888 -0.858167 -0.2778 -0.431713
-0.092206 0.265994 0.969059 -0.839121 -0.289665 -0.460403
-0.088884 0.266837 0.972469 0.845958 0.28504 0.450674
-0.084852 0.265532 0.968021 -0.832319 -0.285215 -0.475288
-0.080715 0.263666 0.961525 0.846843 0.269861 0.458293
-0.075731 0.258839 0.944221 -0.862574 -0.264038 -0.431568
-0.070837 0.253867 0.92635 -0.833559 -0.306478 -0.45962
-0.068908 0.25944 0.946953 0.835776 0.278008 0.473488
-0.065188 0.258627 0.944227 0.795166 0.318171 0.516214
-0.059701 0.250308 0.914087 -0.711929 -0.375445 -0.593464
-0.056418 0.250788 0.916042 -0.636692 -0.399155 -0.659771
-0.052363 0.247543 0.904391 -0.0876019 0.49752 0.863018
-0.049101 0.248002 0.906268 -0.325748 0.472811 0.818741
-0.046243 0.250724 0.91639 0.165252 -0.506663 -0.846158
-0.04254 0.24873 0.909379 0.374799 -0.450247 -0.810434
-0.039496 0.250799 0.917089 0.41165 -0.466592 -0.782839
-0.036236 0.251756 0.920733 0.462151 -0.468293 -0.753073
-0.033256 0.254838 0.932123 0.402916 -0.497201 -0.768407
-0.029356 0.251008 0.91823 -0.508114 0.445819 0.73693
-0.025974 0.251184 0.918993 0.505628 -0.451745 -0.735028
-0.023535 0.261579 0.957113 0.496088 -0.50382 -0.707151
-0.018881 0.247053 0.90405 0.473511 -0.433689 -0.766617
-0.015848 0.252054 0.922408 -0.534128 0.475675 0.698885
-0.012354 0.249867 0.914461 0.531901 -0.467843 -0.705836
-0.009049 0.252082 0.922597 -0.539955 0.458613 0.705778
-0.005759 0.257686 0.943139 -0.532654 0.489447 0.69045
-0.002267 0.25428 0.930671 0.560018 -0.478731 -0.676163
0.001174 0.253372 0.92735 -0.571325 0.477645 0.667415
0.004676 0.257199 0.941357 -0.522999 0.492126 0.695905
0.008104 0.256357 0.938244 -0.522835 0.511685 0.681779
0.011769 0.260604 0.953759 0.506608 -0.484471 -0.713188
0.015148 0.25803 0.944278 -0.512787 0.499539 0.69822
0.018705 0.259282 0.948801 -0.51134 0.49706 0.701044
0.022202 0.259107 0.948099 -0.517772 0.492784 0.69934
0.025548 0.25745 0.941947 -0.521765 0.503341 0.688773
0.029131 0.258553 0.945862 0.523019 -0.510268 -0.682698
0.033031 0.261702 0.957291 -0.53643 0.499438 0.680297
0.036739 0.262863 0.961387 -0.546787 0.485751 0.681961
0.040129 0.261947 0.957916 -0.547389 0.48191 0.684199
0.044236 0.265296 0.970008 -0.552792 0.455971 0.697504
0.047279 0.262268 0.958645 -0.549452 0.47103 0.690097
0.052037 0.268643 0.98176 0.539598 -0.459922 -0.7052
0.055106 0.265894 0.971528 -0.543634 0.463619 0.699657
0.059333 0.268727 0.981661 -0.528327 0.465402 0.710121
0.062572 0.267144 0.975631 -0.520601 0.466687 0.714967
0.067359 0.271859 0.99263 0.49974 -0.456347 -0.736212
0.070621 0.270249 0.986502 0.507978 -0.464619 -0.725319
0.074593 0.271496 0.990768 0.495558 -0.463705 -0.734438
0.078256 0.271445 0.990303 -0.498273 0.460706 0.734488
0.081249 0.269178 0.98172 -0.492301 0.473248 0.730531
0.085586 0.271467 0.989784 -0.49681 0.456225 0.738267
0.088995 0.270651 0.986466 0.501462 -0.468058 -0.727638
0.093395 0.272795 0.993932 -0.478506 0.468262 0.742808
0.096857 0.272169 0.99119 -0.477848 0.471476 0.741196
0.10019 0.271299 0.987676 0.483727 -0.469 -0.73895
0.105882 0.276568 1.00647 -0.454787 0.470398 0.756237
0.111207 0.280551 1.02055 -0.472801 0.469418 0.745725
0.113507 0.276969 1.0071 -0.473554 0.471946 0.743649
0.116172 0.274403 0.997356 0.456261 -0.472964 -0.753745
0.121574 0.278261 1.01093 -0.465358 0.479981 0.74368
0.125143 0.277817 1.00886 0.467447 -0.486957 -0.737812
0.12931 0.278758 1.0118 -0.451852 0.480263 0.751783
0.13482 0.28239 1.02449 0.448536 -0.491884 -0.746234
0.13825 0.281585 1.02105 0.440897 -0.486178 -0.75448
0.142477 0.282469 1.02373 -0.440806 0.496024 0.748098
0.147952 0.285652 1.03474 0.420213 -0.502386 -0.755665
0.150547 0.283256 1.0255 -0.410901 0.519962 0.748866
0.154078 0.282755 1.0231 0.413945 -0.513098 -0.751917
0.157739 0.282452 1.02145 0.420586 -0.517012 -0.745524
0.164312 0.287256 1.03818 0.410571 -0.495257 -0.765606
0.168539 0.287886 1.03986 -0.41561 0.488399 0.76729
0.172861 0.288591 1.04177 0.381628 -0.491485 -0.782817
0.17565 0.286763 1.03451 0.35098 -0.499116 -0.792273
0.180324 0.288078 1.03859 -0.300111 0.496044 0.814784
0.184569 0.288614 1.03985 0.231117 -0.519716 -0.822484
0.187877 0.287693 1.03584 0.184182 -0.518266 -0.835151
0.192208 0.288396 1.03763 -0.0811036 0.52297 0.848484
0.195828 0.287941 1.03541 0.0105426 0.507793 0.861415
0.203203 0.292998 1.05282 -0.148733 -0.515825 -0.843684
0.20309 0.287225 1.03134 -0.281667 -0.475179 -0.833588
0.208598 0.289517 1.03877 0.350033 0.465569 0.812848
0.211356 0.287931 1.03231 0.495105 0.435757 0.751656
0.213405 0.285465 1.02279 0.62719 0.39131 0.673431
0.220117 0.289203 1.03535 -0.647691 -0.366252 -0.668098
0.221761 0.28631 1.0242 -0.730855 -0.337388 -0.593313
0.225504 0.286138 1.02272 0.739236 0.306229 0.599795
0.22382 0.279209 0.997231 -0.782561 -0.314933 -0.537044
0.227685 0.27931 0.99675 0.776614 0.305582 0.5509
0.232762 0.280908 1.00157 0.782743 0.298108 0.546302
0.235899 0.280119 0.998002 0.786774 0.296995 0.541093
0.240743 0.281344 1.00149 0.788678 0.2792 0.547754
0.242888 0.279463 0.993884 -0.788052 -0.276393 -0.550074
0.247434 0.280328 0.996133 -0.787501 -0.271167 -0.553454
0.252763 0.282071 1.00138 -0.787333 -0.267358 -0.555542
0.252451 0.277494 0.984313 -0.792665 -0.275391 -0.543914
0.254517 0.275692 0.976962 -0.800166 -0.270423 -0.535356
0.256185 0.273486 0.968276 0.823743 0.271331 0.497823
0.262732 0.276508 0.978013 -0.80503 -0.26841 -0.529039
0.266912 0.276957 0.978688 0.814721 0.265098 0.515707
0.269875 0.276148 0.97495 0.816833 0.280521 0.504075
0.270277 0.272806 0.96214 -0.828353 -0.273146 -0.489104
0.274323 0.273151 0.962425 -0.82529 -0.27576 -0.492802
0.277301 0.272438 0.958979 -0.833884 -0.271373 -0.480619
0.278972 0.270536 0.95122 0.838177 0.270176 0.473776
0.283278 0.271145 0.952403 -0.833839 -0.268809 -0.482135
0.283242 0.267634 0.939123 -0.841028 -0.278021 -0.464086
0.284747 0.265677 0.931288 -0.847988 -0.26494 -0.459045
0.288152 0.265522 0.929666 -0.856848 -0.260016 -0.4452
0.293568 0.26717 0.93443 -0.856639 -0.253032 -0.449605
0.293289 0.263685 0.921246 -0.859471 -0.25102 -0.445307
0.2964 0.263294 0.918855 -0.85349 -0.257022 -0.453314
0.297753 0.261341 0.911025 -0.836678 -0.264712 -0.479475
0.301166 0.261247 0.909651 -0.822311 -0.281955 -0.494274
0.307299 0.263486 0.916392 -0.771059 -0.320776 -0.550064
0.301694 0.255725 0.888344 -0.826505 -0.271207 -0.493292
0.301633 0.252759 0.877 -0.793727 -0.284074 -0.537865
0.310281 0.2571 0.891002 0.742055 0.349884 0.571782
0.307457 0.251915 0.872064 -0.109159 0.492217 0.863601
0.320078 0.259412 0.896918 -0.483025 -0.468815 -0.739526
0.323747 0.259546 0.89625 0.0150873 0.535568 0.844358
0.330118 0.26182 0.902929 -0.385363 0.465407 0.796801
0.333702 0.261827 0.901916 -0.448388 0.445334 0.775001
0.342373 0.265837 0.914509 0.639491 -0.390007 -0.66253
0.343796 0.264171 0.907592 0.664795 -0.337408 -0.666486
0.360537 0.274179 0.940792 -0.932549 0.121125 0.34012
0.352301 0.265212 0.908805 0.777704 -0.262188 -0.571344
-0.371617 0.276988 0.932745 0.701322 -0.371241 -0.608546
-0.367796 0.276903 0.933644 -0.599454 0.405494 0.690094
-0.359843 0.273642 0.923953 -0.474058 0.462367 0.749324
-0.35433 0.272218 0.920277 -0.412909 0.463197 0.78419
-0.35037 0.271963 0.920682 -0.430201 0.458711 0.777504
-0.34895 0.2737 0.927699 -0.476348 0.436408 0.763309
-0.347126 0.275146 0.933819 -0.517463 0.429457 0.740134
-0.343073 0.274843 0.933899 -0.50554 0.442879 0.740465
-0.345597 0.279852 0.952157 -0.532462 0.421078 0.734287
-0.333815 0.273258 0.930898 -0.491492 0.449043 0.746187
-0.336179 0.2782 0.948901 -0.516675 0.446566 0.730497
-0.330004 0.276163 0.943003 -0.526085 0.461219 0.714501
-0.321455 0.272039 0.93006 0.543374 -0.446786 -0.710723
-0.326906 0.279802 0.957742 0.534866 -0.432155 -0.726058
-0.32108 0.277981 0.95264 0.543338 -0.439289 -0.715408
-0.315464 0.276327 0.948068 -0.568683 0.422025 0.706042
-0.312648 0.277088 0.951775 0.559428 -0.410597 -0.720036
-0.306764 0.275115 0.946054 0.563585 -0.395037 -0.725478
-0.306753 0.278423 0.9585 -0.552047 0.39635 0.733588
-0.303847 0.279181 0.96215 -0.557711 0.390961 0.732195
-0.3065 0.285099 0.983605 -0.552424 0.395807 0.733597
-0.30277 0.285183 0.984957 -0.523088 0.420851 0.741123
-0.289889 0.276538 0.956099 -0.54609 0.406296 0.732604
-0.285032 0.275361 0.953132 0.518825 -0.437733 -0.734309
-0.287144 0.281036 0.973756 -0.550062 0.411961 0.726443
-0.282123 0.279787 0.970375 -0.547774 0.43111 0.716999
-0.277323 0.278694 0.967556 0.542531 -0.432493 -0.720145
-0.279503 0.28468 0.98938 0.52549 -0.441292 -0.727407
-0.276617 0.285632 0.993653 -0.52108 0.444736 0.728482
-0.271481 0.284254 0.989785 -0.513727 0.450495 0.730164
-0.263716 0.280012 0.976009 0.525476 -0.461034 -0.715069
-0.265195 0.285637 0.996513 0.492957 -0.434031 -0.754062
-0.260589 0.284776 0.994373 -0.496309 0.451088 0.741752
-0.254671 0.282401 0.987048 0.480354 -0.461791 -0.745661
-0.252472 0.284174 0.994104 -0.497158 0.464117 0.733096
-0.251104 0.286953 1.00478 -0.486264 0.442762 0.753332
-0.246409 0.285953 1.00211 0.491288 -0.442322 -0.750325
-0.241803 0.284991 0.99965 0.495341 -0.444219 -0.74653
-0.237911 0.284856 1.00009 -0.50097 0.45466 0.736419
-0.234588 0.285479 1.00304 0.483089 -0.452495 -0.749582
-0.231197 0.285965 1.00563 0.472317 -0.452592 -0.756358
-0.22838 0.287222 1.01079 0.490157 -0.453594 -0.744311
-0.22413 0.286697 1.00979 0.495185 -0.455748 -0.739652
-0.218306 0.284063 1.00136 0.496173 -0.454117 -0.739993
-0.221221 0.292953 1.03354 0.473395 -0.484758 -0.735464
-0.214524 0.289192 1.02098 -0.477624 0.478315 0.736946
-0.208864 0.286685 1.01291 0.477278 -0.47209 -0.741173
-0.206307 0.288468 1.01997 -0.485613 0.477914 0.731969
-0.201603 0.287213 1.01632 0.47487 -0.494677 -0.727869
-0.197295 0.286564 1.01466 -0.466367 0.500158 0.729619
-0.194516 0.288121 1.0209 0.451362 -0.491466 -0.744805
-0.192164 0.290336 1.02947 0.467926 -0.480117 -0.741979
-0.187948 0.289818 1.02833 0.475251 -0.479148 -0.737939
-0.186975 0.294331 1.04505 -0.462234 0.491292 0.738222
-0.184055 0.295963 1.05156 0.455873 -0.508729 -0.730325
-0.181202 0.297775 1.05868 -0.440544 0.486491 0.754485
-0.174602 0.293349 1.04349 -0.417707 0.511965 0.750608
-0.169792 0.29182 1.03869 -0.364179 0.515951 0.775351
-0.165915 0.291802 1.03925 -0.267893 0.53184 0.803355
-0.162205 0.292143 1.04107 -0.24385 0.534705 0.809091
-0.160528 0.296253 1.05632 -0.189522 0.522997 0.830997
-0.154558 0.292385 1.04313 -0.0461991 -0.509655 -0.859138
-0.152961 0.296868 1.05971 -0.0038296 -0.537014 -0.843565
-0.147179 0.293252 1.04737 0.313744 0.511679 0.799843
-0.144391 0.295568 1.05618 -0.33265 -0.50885 -0.793987
-0.138033 0.290429 1.03831 -0.594293 -0.461536 -0.658636
-0.133029 0.288 1.03015 -0.68924 -0.390997 -0.609975
-0.129907 0.28962 1.03645 0.697018 0.404557 0.59203
-0.124894 0.286918 1.02724 -0.779564 -0.350669 -0.518952
-0.12172 0.288483 1.0333 -0.78779 -0.331966 -0.51883
-0.11693 0.286195 1.02556 -0.800993 -0.333092 -0.497453
-0.110697 0.28002 1.00385 0.83102 0.323973 0.452159
-0.104505 0.273606 0.981231 -0.848336 -0.292703 -0.441192
-0.101679 0.275858 0.989719 0.845654 0.293195 0.445989
-0.097062 0.273209 0.98067 -0.859104 -0.287889 -0.423155
-0.094398 0.276004 0.991081 0.847109 0.290932 0.444708
-0.088231 0.268464 0.964343 0.836664 0.275496 0.473388
-0.084308 0.267403 0.960836 0.847813 0.269141 0.45692
-0.079529 0.263313 0.946441 -0.86529 -0.263576 -0.42638
-0.076472 0.264914 0.952497 -0.857502 -0.264981 -0.440994
-0.071802 0.260809 0.938008 0.839062 0.291958 0.459059
-0.068937 0.263066 0.946396 0.834334 0.292565 0.467218
-0.064579 0.259681 0.934453 -0.789401 -0.345643 -0.507324
-0.058461 0.24843 0.894195 -0.103386 0.531027 0.841024
-0.055442 0.249661 0.898825 -0.398577 -0.471187 -0.786841
-0.052902 0.253476 0.912763 0.518846 0.402449 0.75421
-0.049554 0.25368 0.913701 0.261009 0.473563 0.841197
-0.045483 0.249941 0.900405 0.404619 -0.45699 -0.792113
-0.04235 0.251004 0.904407 0.375809 -0.479019 -0.793289
-0.038415 0.247237 0.891076 -0.412792 0.455783 0.788584
-0.035714 0.251494 0.906564 -0.434183 0.43855 0.786867
-0.032476 0.252227 0.909319 -0.471737 0.435611 0.766621
-0.029436 0.2551 0.919793 0.493633 -0.457512 -0.739601
-0.02535 0.248474 0.896016 0.453791 -0.439893 -0.774963
-0.022269 0.250862 0.904713 0.484481 -0.427108 -0.763451
-0.019375 0.256954 0.926743 -0.517677 0.464116 0.718753
-0.015773 0.254262 0.917122 0.518272 -0.471308 -0.713627
-0.012598 0.258243 0.931509 -0.536883 0.490886 0.68614
-0.008965 0.253136 0.913144 -0.548753 0.457295 0.699822
-0.005675 0.257356 0.928399 -0.550106 0.479975 0.68338
-0.002259 0.256754 0.926228 -0.558672 0.482809 0.674374
0.001178 0.257675 0.929548 0.561399 -0.487339 -0.668829
0.004667 0.260184 0.9386 -0.511984 0.510387 0.690925
0.008071 0.258775 0.93349 -0.519997 0.503091 0.690291
0.011626 0.260926 0.941217 -0.51758 0.511122 0.686196
0.015302 0.264172 0.952867 -0.488555 0.512337 0.706275
0.018766 0.263651 0.950927 -0.508004 0.491992 0.70702
0.022242 0.263092 0.94885 -0.515044 0.49088 0.702685
0.02583 0.263815 0.951366 0.526592 -0.495055 -0.691102
0.029634 0.266587 0.961242 -0.548783 0.492556 0.675445
0.033276 0.267212 0.963372 0.556328 -0.478748 -0.67919
0.036873 0.267396 0.963916 -0.565198 0.466946 0.680083
0.040728 0.26946 0.971202 -0.559488 0.465593 0.685709
0.044359 0.269638 0.971688 -0.552699 0.465102 0.691523
0.048011 0.269937 0.972501 0.547765 -0.469209 -0.692673
0.051213 0.267973 0.965241 0.552003 -0.476529 -0.684261
0.054868 0.268332 0.966319 0.552183 -0.467614 -0.69024
0.059335 0.272375 0.980662 0.533896 -0.460023 -0.70946
0.06253 0.27058 0.973983 -0.529125 0.471365 0.705579
0.065931 0.269701 0.970573 -0.522125 0.48834 0.69922
0.07047 0.273326 0.983367 -0.509494 0.47205 0.719433
0.074249 0.273904 0.985196 0.498565 -0.476428 -0.724189
0.078365 0.275504 0.99067 -0.500931 0.467914 0.728097
0.0819 0.27501 0.988577 0.500473 -0.471378 -0.726175
0.085102 0.27349 0.9828 -0.494311 0.47701 0.726717
0.089583 0.276131 0.991978 0.488015 -0.466913 -0.737451
0.093486 0.276759 0.993887 0.485709 -0.463839 -0.740905
0.09797 0.278993 1.00156 -0.476636 0.473892 0.740435
0.10192 0.27969 1.00368 0.465325 -0.464685 -0.753353
0.105627 0.27964 1.003 0.461427 -0.468047 -0.753669
0.108717 0.277983 0.996675 0.467479 -0.468154 -0.749864
0.113284 0.28017 1.0041 0.474876 -0.460621 -0.749881
0.118417 0.283496 1.01557 -0.462586 0.471229 0.750971
0.12192 0.282833 1.01274 0.463935 -0.468296 -0.751973
0.126225 0.284013 1.01651 -0.451114 0.474113 0.756118
0.128983 0.281819 1.00818 -0.466488 0.48389 0.740432
0.135909 0.288526 1.03167 -0.438443 0.478272 0.760936
0.136126 0.281014 1.00433 0.445915 -0.479174 -0.756011
0.142535 0.286412 1.0231 -0.424869 0.489561 0.761457
0.147791 0.289206 1.03252 0.425397 -0.502536 -0.752658
0.150065 0.286172 1.02113 0.423292 -0.496845 -0.757608
0.154418 0.287217 1.0243 0.415798 -0.504618 -0.756619
0.159275 0.289065 1.0303 0.437665 -0.502835 -0.74539
0.161482 0.286132 1.01926 -0.425654 0.500824 0.753654
0.168947 0.292492 1.04128 0.386411 -0.496966 -0.776989
0.171195 0.289681 1.03064 -0.390135 0.513955 0.763967
0.174819 0.289273 1.02853 -0.369981 0.511622 0.775472
0.178619 0.289187 1.02768 0.330376 -0.521524 -0.786679
0.185683 0.294256 1.04502 -0.223421 0.530317 0.817831
0.188283 0.292239 1.03716 0.172657 -0.527406 -0.831885
0.193416 0.294105 1.04307 -0.0826334 0.531211 0.8432
0.199578 0.297431 1.05412 -0.040214 -0.493869 -0.868606
0.201938 0.29512 1.04519 -0.141465 -0.492248 -0.858883
0.205728 0.294898 1.04363 -0.225279 -0.479329 -0.848229
0.208167 0.292798 1.03555 0.360888 0.468656 0.806301
0.211912 0.292566 1.03393 0.464765 0.452465 0.761097
0.215165 0.29172 1.03013 -0.587801 -0.411883 -0.696306
0.221886 0.295477 1.04259 -0.587174 -0.375786 -0.716946
0.220208 0.288124 1.01594 -0.720815 -0.34945 -0.59859
0.227681 0.29278 1.03149 0.726001 0.343391 0.595823
0.224148 0.283407 0.997657 -0.776879 -0.31766 -0.543647
0.231185 0.287453 1.01113 -0.785013 -0.310255 -0.536186
0.236929 0.289778 1.01845 -0.789951 -0.298271 -0.535734
0.236622 0.284786 0.999989 -0.786839 -0.295726 -0.541693
0.241816 0.286435 1.00501 0.786754 0.295327 0.542034
0.245735 0.286538 1.00445 -0.790525 -0.276814 -0.5463
0.247546 0.284223 0.995511 -0.78294 -0.270419 -0.560248
0.249685 0.28238 0.988121 0.775877 0.279761 0.565464
0.253773 0.282732 0.988527 0.779475 0.268852 0.565807
0.257011 0.28217 0.985594 -0.798586 -0.276069 -0.534832
0.256055 0.277055 0.966889 0.814032 0.278663 0.509606
0.26211 0.279595 0.974761 0.815914 0.276278 0.507893
0.263743 0.277381 0.966138 0.818552 0.273546 0.50512
0.269599 0.279606 0.973011 0.82209 0.278996 0.496315
0.267413 0.273576 0.951025 -0.838495 -0.27726 -0.469099
0.27477 0.277307 0.963057 0.828109 0.272244 0.49002
0.273159 0.272008 0.943737 0.833973 0.278239 0.476521
0.278453 0.273632 0.948417 0.833652 0.276698 0.477977
0.279978 0.27162 0.940385 -0.833542 -0.282736 -0.474624
0.280861 0.268983 0.930315 -0.8381 -0.281791 -0.467101
0.28503 0.269519 0.931198 -0.841101 -0.282517 -0.46123
0.288771 0.26967 0.930746 -0.848456 -0.28005 -0.449104
0.288441 0.266033 0.917202 -0.866656 -0.249521 -0.432027
0.290233 0.264446 0.910744 -0.869034 -0.24118 -0.431986
0.302313 0.272157 0.936256 -0.849939 -0.267003 -0.454216
0.297728 0.264832 0.910041 -0.837248 -0.270162 -0.475425
0.303127 0.266483 0.914659 -0.80678 -0.286171 -0.516926
0.306449 0.26629 0.912943 -0.779704 -0.312702 -0.542476
0.305098 0.262087 0.897464 -0.786069 -0.333895 -0.520201
0.307161 0.260878 0.892262 -0.765751 -0.34778 -0.540994
0.309083 0.259576 0.886751 0.72689 0.328786 0.602935
0.30694 0.254927 0.8698 -0.517058 0.42555 0.74267
0.320679 0.263425 0.89766 0.517107 0.446589 0.730177
0.319026 0.259201 0.882282 -0.380598 0.539107 0.751338
0.325834 0.261898 0.890302 0.394331 -0.448851 -0.801895
0.332626 0.264549 0.898143 0.486755 -0.440888 -0.754114
0.339359 0.267041 0.905528 0.530481 -0.393977 -0.750581
0.341063 0.26562 0.899501 0.587877 -0.407594 -0.698762
0.347763 0.268023 0.906525 0.763055 -0.293607 -0.575797
0.352677 0.269068 0.908838 0.798016 -0.233622 -0.555511
-0.36553 0.276071 0.916483 0.3587 -0.48262 -0.799007
-0.361905 0.276087 0.917736 0.550219 -0.468279 -0.691356
-0.356591 0.274794 0.914705 -0.412756 0.490916 0.767224
-0.358279 0.278931 0.929656 -0.52032 0.458156 0.720666
-0.345829 0.272033 0.907782 -0.315072 0.512444 0.798831
-0.347212 0.275952 0.922098 -0.474521 0.447687 0.757896
-0.347165 0.27883 0.932935 -0.514759 0.41125 0.752261
-0.336592 0.27323 0.915289 -0.428011 0.515408 0.742403
-0.338802 0.27799 0.932452 -0.482047 0.449677 0.751945
-0.330033 0.273748 0.919386 0.497683 -0.474491 -0.726064
-0.332618 0.278964 0.937987 0.514692 -0.442456 -0.734387
-0.330956 0.280635 0.944767 0.504062 -0.447941 -0.738425
-0.323259 0.277195 0.934304 0.553585 -0.429907 -0.713248
-0.323821 0.280839 0.947718 0.536091 -0.437418 -0.721992
-0.320975 0.281605 0.951437 -0.558091 0.407173 0.723011
-0.319474 0.283553 0.959157 0.555035 -0.409511 -0.724042
-0.312217 0.280409 0.949483 -0.567723 0.407207 0.715453
-0.303002 0.275377 0.933519 0.603227 -0.423565 -0.675803
-0.310803 0.285874 0.970189 -0.54109 0.40052 0.739463
-0.302362 0.281535 0.9565 -0.550915 0.406434 0.728906
-0.304171 0.286718 0.975166 -0.53948 0.406666 0.737282
-0.302169 0.288393 0.982 -0.537153 0.409871 0.737206
-0.293778 0.283935 0.967867 0.521335 -0.408909 -0.749001
-0.291797 0.285669 0.974764 -0.519946 0.419661 0.744003
-0.292785 0.290392 0.991882 0.537375 -0.431605 -0.724531
-0.287273 0.288675 0.987014 -0.548865 0.421105 0.722093
-0.285804 0.291061 0.996144 0.527708 -0.434093 -0.730129
-0.276554 0.285446 0.97799 0.548974 -0.441571 -0.709678
-0.274863 0.287619 0.986363 0.522644 -0.460902 -0.717226
-0.265688 0.281912 0.967699 -0.525815 0.464154 0.712797
-0.266261 0.286499 0.984482 -0.526095 0.45726 0.717033
-0.265315 0.289592 0.996011 -0.496322 0.439044 0.748936
-0.256926 0.2845 0.979459 0.521826 -0.451597 -0.723711
-0.255283 0.28687 0.988478 0.487438 -0.449372 -0.748645
-0.25216 0.287622 0.991931 0.496364 -0.439624 -0.748568
-0.248802 0.288092 0.994494 0.49339 -0.452461 -0.742863
-0.24407 0.286992 0.991524 -0.501111 0.449569 0.739443
-0.241806 0.288812 0.998724 0.491978 -0.446568 -0.747351
-0.238364 0.289253 1.00105 -0.495963 0.449942 0.74268
-0.238006 0.293478 1.01656 0.477149 -0.469555 -0.742864
-0.232328 0.291174 1.00947 0.4725 -0.467358 -0.747208
-0.228978 0.291834 1.0125 -0.491138 0.460978 0.73911
-0.225139 0.291805 1.01326 0.482977 -0.473063 -0.736848
-0.223338 0.294464 1.02335 -0.484852 0.466013 0.740102
-0.215398 0.289055 1.00526 -0.478178 0.468469 0.742888
-0.213209 0.291229 1.01361 0.470332 -0.478921 -0.74123
-0.213761 0.297341 1.03572 0.447835 -0.50143 -0.740278
-0.20629 0.292299 1.0188 -0.476174 0.48215 0.735384
-0.202465 0.292343 1.01974 0.469299 -0.491473 -0.73363
-0.200676 0.295337 1.03095 -0.455346 0.493074 0.741308
-0.195793 0.293855 1.0265 -0.462226 0.48578 0.741865
-0.193658 0.29647 1.03637 -0.455822 0.486604 0.74528
-0.186429 0.291318 1.01894 -0.482715 0.46535 0.741913
-0.182547 0.291202 1.01923 0.475373 -0.469718 -0.743899
-0.181981 0.296538 1.0386 0.438517 -0.495579 -0.749736
-0.178797 0.297749 1.04351 -0.4515 0.489809 0.745811
-0.175179 0.298217 1.04583 0.41926 -0.503945 -0.755156
-0.171441 0.298558 1.04766 -0.378463 0.514689 0.769325
-0.167109 0.297856 1.04584 -0.338785 0.521189 0.783318
-0.163031 0.29752 1.04526 -0.256116 0.523958 0.812326
-0.16004 0.299265 1.052 -0.187849 0.524147 0.830652
-0.154671 0.296474 1.04279 -0.0446355 -0.548388 -0.835032
-0.152201 0.299307 1.05333 0.0413824 0.540935 0.840046
-0.146854 0.296516 1.04396 0.327009 0.52311 0.787033
-0.144661 0.300077 1.05703 -0.333655 -0.519957 -0.786333
-0.138794 0.295934 1.04297 -0.587973 -0.472214 -0.656735
-0.134445 0.294954 1.04002 -0.636916 -0.442277 -0.63145
-0.128598 0.290532 1.02492 0.755337 0.373023 0.538813
-0.122786 0.285813 1.00884 0.824249 0.320971 0.466467
-0.119165 0.28617 1.01055 0.82931 0.308903 0.465644
-0.117286 0.290871 1.02761 -0.803542 -0.333579 -0.492996
-0.108328 0.277658 0.981335 0.843652 0.294726 0.448762
-0.107361 0.284808 1.00699 0.832753 0.31667 0.454139
-0.103267 0.283881 1.00413 -0.830842 -0.328989 -0.448851
-0.096153 0.274179 0.97018 -0.851662 -0.275878 -0.445604
-0.092521 0.274132 0.970353 0.850056 0.271771 0.451159
-0.087488 0.269762 0.95522 -0.839217 -0.276164 -0.468453
-0.084259 0.27082 0.959273 0.840567 0.276797 0.465651
-0.080652 0.2706 0.958799 -0.842133 -0.274998 -0.463883
-0.075856 0.266293 0.943836 -0.862287 -0.266598 -0.430566
-0.071213 0.262131 0.92935 -0.821175 -0.315364 -0.475622
-0.066836 0.25846 0.916598 -0.801119 -0.31402 -0.50951
-0.064558 0.263067 0.933175 -0.792053 -0.329201 -0.514081
-0.059428 0.255916 0.908038 -0.691144 -0.370682 -0.620415
-0.05589 0.255042 0.905139 -0.524185 -0.413649 -0.744395
-0.051808 0.251555 0.892964 -0.581042 0.405745 0.705523
-0.048989 0.25414 0.90234 -0.173511 0.469272 0.865839
-0.045425 0.2528 0.897752 0.404104 -0.446592 -0.798283
-0.042514 0.255317 0.906965 0.3382 -0.466264 -0.817446
-0.03962 0.258406 0.918083 -0.371699 0.462109 0.805167
-0.036202 0.258338 0.917988 0.424909 -0.454028 -0.783142
-0.032444 0.255352 0.907491 -0.457474 0.440771 0.772294
-0.029273 0.257082 0.913755 0.477392 -0.453877 -0.752391
-0.025798 0.256247 0.910904 0.483276 -0.456681 -0.746918
-0.022802 0.2603 0.925401 0.510255 -0.454569 -0.730073
-0.019181 0.257782 0.916534 -0.507459 0.449252 0.735295
-0.01578 0.257762 0.916524 0.51759 -0.457103 -0.723296
-0.012437 0.25835 0.918673 -0.527122 0.462201 0.713101
-0.008927 0.255423 0.908293 -0.53085 0.432438 0.728832
-0.005775 0.265417 0.94386 0.509844 -0.506458 -0.695384
-0.002276 0.262144 0.932221 -0.541187 0.48862 0.684374
0.001179 0.261424 0.929692 -0.553222 0.481926 0.67948
0.004653 0.262857 0.934757 -0.510246 0.501984 0.698327
0.008152 0.264869 0.941882 -0.521502 0.504266 0.688296
0.0117 0.266099 0.946226 -0.504835 0.503065 0.701475
0.015032 0.262979 0.935073 0.537611 -0.491111 -0.685408
0.018782 0.267413 0.950779 -0.506339 0.491857 0.708306
0.022315 0.267474 0.950935 -0.514665 0.494679 0.700295
0.025501 0.263935 0.938264 -0.537605 0.489752 0.686384
0.029405 0.268063 0.952847 -0.537299 0.475213 0.696765
0.032889 0.267637 0.951211 -0.56358 0.457075 0.688085
0.036765 0.270182 0.960104 -0.558504 0.470546 0.683125
0.040131 0.26906 0.955996 -0.559298 0.463523 0.687265
0.042889 0.264181 0.938514 -0.516568 0.488889 0.702954
0.047052 0.268079 0.952073 -0.555053 0.468661 0.687221
0.051468 0.272909 0.96904 -0.554296 0.467095 0.688897
0.054671 0.270941 0.961869 -0.562022 0.474552 0.677445
0.0584 0.271663 0.96422 -0.549218 0.479574 0.684375
0.06234 0.273366 0.970016 -0.535563 0.471019 0.700938
0.067079 0.278063 0.986465 -0.50986 0.471625 0.719453
0.070422 0.276791 0.981701 -0.508036 0.47291 0.7199
0.07402 0.276593 0.980719 -0.498358 0.47707 0.723909
0.077092 0.274651 0.973556 -0.502068 0.487588 0.714273
0.081038 0.275753 0.977148 -0.503631 0.49723 0.706483
0.086324 0.281122 0.995859 -0.497689 0.474434 0.726098
0.089674 0.280105 0.991942 -0.490788 0.480387 0.726881
0.093337 0.280012 0.991262 -0.498216 0.47541 0.725098
0.098117 0.283148 1.00201 -0.475851 0.460071 0.7496
0.099997 0.278079 0.9837 0.497049 -0.493501 -0.713722
0.10511 0.281957 0.997037 0.467431 -0.467467 -0.750322
0.108559 0.281259 0.994186 -0.469974 0.473552 0.744898
0.112515 0.281876 0.995954 -0.464438 0.468289 0.751667
0.117284 0.284502 1.00479 -0.460455 0.463709 0.756938
0.120424 0.283065 0.999293 0.454986 -0.476757 -0.752124
0.125404 0.285938 1.00884 -0.458959 0.467925 0.75525
0.130214 0.288309 1.01675 -0.434186 0.48378 0.759894
0.133803 0.287852 1.01462 -0.439543 0.480032 0.759191
0.137252 0.287125 1.01157 -0.443532 0.479816 0.757005
0.141087 0.28729 1.01163 0.435531 -0.490274 -0.754946
0.144464 0.286442 1.00821 -0.428975 0.496392 0.754702
0.150045 0.289925 1.01992 0.411846 -0.509492 -0.755514
0.152662 0.287713 1.01158 -0.428232 0.501016 0.752064
0.158494 0.29146 1.02417 -0.436144 0.507018 0.743446
0.161861 0.290603 1.02057 -0.42823 0.499555 0.753037
0.166485 0.292049 1.02502 -0.425544 0.497074 0.756195
0.170369 0.292103 1.02458 0.378967 -0.515063 -0.768827
0.175438 0.294144 1.03108 0.353568 -0.540956 -0.763123
0.178142 0.292268 1.02385 -0.347708 0.529714 0.773629
0.184239 0.29587 1.03579 0.255809 -0.525986 -0.811111
0.186576 0.293461 1.02667 0.219706 -0.549935 -0.805792
0.192165 0.296075 1.03523 -0.104337 0.526772 0.843579
0.196723 0.297111 1.03811 0.0229777 -0.517157 -0.855582
0.201355 0.298167 1.04106 -0.113915 -0.507384 -0.854158
0.20552 0.298504 1.04147 -0.209124 -0.488199 -0.847307
0.206466 0.294288 1.02599 0.379635 0.496463 0.780642
0.21484 0.300539 1.04709 0.439589 0.447713 0.778662
0.215006 0.295367 1.02827 -0.565747 -0.447462 -0.69261
0.219069 0.295637 1.02841 0.644183 0.407334 0.647385
0.217939 0.288967 1.0044 0.747137 0.359713 0.558921
0.223476 0.291225 1.01151 0.751617 0.34913 0.559624
0.228546 0.292798 1.01611 0.768817 0.336982 0.543474
0.23283 0.293337 1.01724 -0.782476 -0.322192 -0.532845
0.236799 0.2935 1.0169 0.788812 0.301664 0.535513
0.234278 0.285702 0.989018 0.772045 0.295492 0.562699
0.243287 0.291997 1.01004 0.798153 0.292666 0.526592
0.245121 0.289649 1.00097 0.790404 0.281149 0.544258
0.249089 0.289824 1.00077 0.78944 0.279548 0.546478
0.24964 0.286109 0.987004 -0.780173 -0.27447 -0.562136
0.251795 0.284247 0.979729 0.792 0.284978 0.53993
0.255892 0.284667 0.980244 -0.797082 -0.27799 -0.53608
0.258362 0.283258 0.974513 -0.805769 -0.284616 -0.519355
0.26069 0.281736 0.968401 0.815215 0.27138 0.511641
0.266259 0.283741 0.974299 -0.821848 -0.266812 -0.503365
0.268554 0.282218 0.968159 -0.825002 -0.271184 -0.495814
0.270747 0.280663 0.961919 0.827933 0.274218 0.489215
0.271475 0.277649 0.950586 -0.838709 -0.266583 -0.474868
0.27434 0.27684 0.946894 -0.83597 -0.273018 -0.476041
0.27534 0.274195 0.936899 0.839077 0.282374 0.464989
0.280134 0.275377 0.939989 -0.838038 -0.279579 -0.468538
0.283823 0.275457 0.939204 -0.834108 -0.282283 -0.473898
0.2877 0.275684 0.938995 -0.836058 -0.279184 -0.472296
0.291584 0.275941 0.938852 0.843706 0.276979 0.459829
0.291252 0.27222 0.925193 -0.85687 -0.257382 -0.446685
0.297096 0.274321 0.931322 -0.850844 -0.261241 -0.455871
0.291032 0.265507 0.900389 -0.896967 -0.236959 -0.37323
0.300665 0.271024 0.918071 -0.819002 -0.298128 -0.490261
0.299773 0.267062 0.903603 -0.845559 -0.286344 -0.450597
0.303878 0.26759 0.904345 0.814856 0.298342 0.496992
0.306824 0.267098 0.901636 -0.802652 -0.312289 -0.508158
0.303709 0.261369 0.881345 -0.793612 -0.355749 -0.493581
0.30847 0.2625 0.88407 -0.72938 -0.368402 -0.576442
0.307232 0.258555 0.869716 -0.281798 -0.502565 -0.817324
0.316989 0.263849 0.88643 -0.628998 -0.376373 -0.680225
0.320548 0.263895 0.88556 0.0963944 -0.538919 -0.836824
0.326065 0.265587 0.890107 -0.298537 0.504141 0.810381
0.337142 0.271699 0.909403 0.49706 -0.441426 -0.747044
0.336133 0.268039 0.89605 -0.51361 0.464332 0.721527
0.336972 0.265918 0.887798 -0.583849 0.41672 0.696752
0.334563 0.261297 0.871294 0.595113 -0.432728 -0.677191
0.351742 0.271942 0.905541 0.804482 -0.233816 -0.546021
-0.368203 0.281759 0.92227 -0.715107 0.408307 0.567369
-0.365837 0.28277 0.926761 -0.639705 0.402784 0.654632
-0.353666 0.276112 0.90623 0.279408 -0.481936 -0.830463
-0.355984 0.280777 0.922716 -0.516889 0.421493 0.745097
-0.355708 0.283496 0.932804 -0.536514 0.40126 0.74239
-0.354657 0.285588 0.940955 -0.568012 0.378721 0.730707
-0.346479 0.281926 0.930106 -0.511322 0.430667 0.743691
-0.346808 0.285238 0.942161 -0.523718 0.383312 0.760783
-0.342772 0.284933 0.942384 -0.512031 0.398041 0.761175
-0.334596 0.2812 0.931117 0.492627 -0.436106 -0.753081
-0.338161 0.287328 0.952585 -0.517284 0.413974 0.749028
-0.326306 0.280343 0.930608 -0.5412 0.419528 0.728766
-0.323983 0.281482 0.93551 -0.560234 0.423661 0.711793
-0.320193 0.28139 0.936217 -0.552308 0.419714 0.720275
-0.323046 0.287166 0.95658 -0.552153 0.418536 0.721078
-0.31983 0.287619 0.959234 -0.535363 0.409766 0.738565
-0.313612 0.285351 0.952739 0.562785 -0.430448 -0.705682
-0.304021 0.279922 0.935695 0.599267 -0.408854 -0.688272
-0.308748 0.287703 0.962785 0.562834 -0.409082 -0.718241
-0.302173 0.285043 0.95492 0.554232 -0.402408 -0.728625
-0.298793 0.285338 0.956947 0.542957 -0.411398 -0.732086
-0.293915 0.28422 0.954234 -0.548127 0.391554 0.739082
-0.293698 0.287607 0.966619 -0.508923 0.410185 0.7568
-0.288715 0.286385 0.96349 -0.531082 0.417249 0.737465
-0.283558 0.284923 0.959544 -0.521155 0.426688 0.739145
-0.283803 0.288922 0.974106 0.53685 -0.423181 -0.729869
-0.277082 0.285873 0.964769 0.521211 -0.445733 -0.727778
-0.280906 0.293768 0.992384 -0.522427 0.450117 0.7242
-0.274705 0.291252 0.984843 0.519979 -0.448428 -0.727004
-0.268559 0.288656 0.977065 0.514749 -0.454758 -0.726794
