ply
format ascii 1.0
comment Aron generated
element vertex 872
property float x
property float y
property float z
property float nx
property float ny
property float nz
end_header
0.993174 -4.28304 1.61871 0.8674 -0.497093 -0.022721
0.985528 -4.27762 1.64064 0.866146 -0.49938 -0.0202716
1.03354 -4.21751 1.59961 -0.854144 0.5181 0.0448397
1.03391 -4.20401 1.61268 -0.850125 0.523084 0.0605893
1.06366 -4.16115 1.59303 0.864183 -0.502687 -0.0222263
1.07685 -4.13457 1.59209 0.864221 -0.502973 -0.011827
1.1008 -4.09691 1.57952 -0.867656 0.497057 0.0103885
1.10101 -4.08321 1.59312 -0.86355 0.504188 0.00870885
1.13456 -4.03518 1.57065 0.859977 -0.509544 -0.0283621
1.16933 -3.98543 1.54734 -0.869034 0.494727 0.00493238
1.17017 -3.97068 1.56069 -0.870553 0.492072 -0.00132434
1.20339 -3.92185 1.53973 -0.862881 0.505218 0.01387
1.2322 -3.87725 1.52388 -0.870553 0.490622 0.0377682
1.22203 -3.8739 1.54908 -0.872997 0.486999 0.026599
1.28735 -3.78954 1.49592 0.866347 -0.49943 0.00355555
1.27685 -3.78638 1.52163 -0.878459 0.477767 -0.00695767
1.29396 -3.75332 1.51897 0.886353 -0.462883 0.0108833
1.32958 -3.69972 1.49778 -0.962978 0.268901 -0.0191218
1.37744 -3.63211 1.46478 -0.972878 -0.223545 0.059457
1.34195 -3.65658 1.51559 -0.844431 -0.534152 0.0402235
1.34617 -3.63715 1.52651 -0.340741 -0.92456 0.170545
1.34408 -3.62482 1.54365 -0.285489 -0.941191 0.180707
1.33637 -3.61893 1.56619 -0.411112 -0.902768 0.126481
1.33484 -3.60615 1.58259 -0.347154 -0.933282 0.092024
1.34991 -3.57436 1.58298 -0.33976 -0.935499 0.0969812
1.34219 -3.56874 1.60527 0.348314 0.937189 -0.0188379
1.28903 -3.61613 1.67035 0.438494 0.898652 -0.0121393
1.29986 -3.58944 1.67458 -0.4626 -0.885914 0.034038
1.29467 -3.5815 1.69384 -0.464206 -0.885688 0.00837467
1.30071 -3.56037 1.70262 -0.474049 -0.879 -0.0513543
1.26102 -3.59369 1.75333 0.400985 0.910174 0.103899
1.2662 -3.57383 1.76264 0.343633 0.893032 0.290534
0.381856 -5.35671 1.84801 -0.298952 0.954204 -0.0110982
0.347409 -5.36511 1.91229 0.121484 0.992399 0.019664
0.350161 -5.35432 1.91749 0.0619144 0.998065 0.00580847
0.339943 -5.35056 1.94296 0.0280969 0.99926 -0.0262871
0.320423 -5.35214 1.98263 -0.324249 -0.945807 -0.0176669
0.324106 -5.3411 1.98613 -0.253955 -0.966524 0.0365736
0.416024 -5.27978 1.8544 0.816034 -0.57685 -0.0365195
0.446446 -5.25241 1.81803 0.873584 -0.486553 0.0108409
0.435902 -5.24859 1.84424 0.866658 -0.498884 0.00424916
0.446464 -5.23241 1.83844 -0.873988 0.48585 -0.00979392
0.466067 -5.21061 1.81927 0.870829 -0.491044 0.0230715
0.439486 -5.21684 1.86912 -0.879085 0.476655 -0.00310617
0.443548 -5.2045 1.87315 -0.87748 0.479401 -0.014257
0.508159 -5.15388 1.78824 -0.869002 0.494808 0.000514936
0.48305 -5.15961 1.8355 -0.865361 0.500611 -0.0232186
0.493556 -5.14269 1.83057 0.864207 -0.502352 0.028103
0.481068 -5.14075 1.85898 -0.8612 0.507794 -0.0219239
0.483072 -5.1294 1.86634 -0.863984 0.503057 -0.0215584
0.509753 -5.1014 1.83854 -0.87347 0.486311 -0.0234911
0.555601 -5.05986 1.78402 -0.874069 0.48578 -0.00454401
0.536128 -5.06279 1.82223 -0.865803 0.500363 -0.00478677
0.559415 -5.03612 1.80024 -0.85926 0.511528 0.00342097
0.542553 -5.03756 1.83443 0.866147 -0.499789 -4.93145e-05
0.564211 -5.01168 1.81508 0.856763 -0.5156 -0.0106506
0.601645 -4.97401 1.77442 -0.866895 0.497741 0.0273394
0.607386 -4.95902 1.7776 0.850892 -0.524571 -0.0284341
0.591774 -4.95984 1.80979 -0.849698 0.52725 0.00449555
0.612556 -4.93361 1.79265 0.865425 -0.500823 -0.0146672
0.61411 -4.92167 1.80157 -0.872555 0.488493 0.00479621
0.633461 -4.89608 1.7868 -0.876572 0.481221 0.00686723
0.65959 -4.86494 1.76338 0.86686 -0.49854 0.00353449
0.655408 -4.85718 1.78016 0.863985 -0.503517 0.000714019
0.68438 -4.82324 1.75358 -0.860774 0.508859 0.0114296
0.702181 -4.79781 1.74193 -0.861512 0.507086 0.0257103
0.709613 -4.78051 1.74389 0.862301 -0.505819 -0.0241654
0.69912 -4.77778 1.76888 0.857888 -0.513641 0.0141797
0.737219 -4.73515 1.73188 0.869552 -0.493707 -0.0115307
0.747377 -4.71522 1.73077 0.870705 -0.490676 -0.0333193
0.765771 -4.68823 1.71946 0.846653 -0.531352 -0.029057
0.763156 -4.67884 1.73459 0.849716 -0.527132 -0.0106764
0.783969 -4.64943 1.72064 -0.853216 0.520042 0.039736
0.799406 -4.62438 1.7136 -0.858915 0.511762 0.0190773
0.827041 -4.58846 1.69187 -0.865285 0.500739 0.023268
0.808668 -4.5927 1.7264 -0.867335 0.49737 0.0187791
0.833194 -4.55911 1.70887 -0.879897 0.474759 0.0196277
0.843551 -4.53789 1.70866 0.876083 -0.481306 -0.0286707
0.852987 -4.51737 1.70968 0.869057 -0.494702 -0.00304303
0.875005 -4.48525 1.69595 -0.86591 0.500198 0.00122396
0.886876 -4.46217 1.69444 -0.870749 0.49164 -0.0093322
0.907544 -4.43078 1.68282 -0.867278 0.497366 -0.0213725
0.947385 -4.38114 1.6493 0.871981 -0.489326 -0.0144451
0.925929 -4.38881 1.68684 -0.862413 0.505828 -0.019516
0.971095 -4.33342 1.64794 0.882164 -0.470505 -0.0202839
0.965132 -4.32645 1.66769 -0.887271 0.461234 0.00378837
0.977957 -4.30143 1.66614 -0.876988 0.480385 0.0110962
1.00615 -4.26127 1.64757 0.861852 -0.505937 -0.0352028
1.00972 -4.24491 1.65674 0.854992 -0.518641 -0.000952647
1.06501 -4.17732 1.6089 0.856556 -0.513781 -0.0483851
1.04301 -4.18606 1.6465 0.861136 -0.508371 -0.00191957
1.06867 -4.14726 1.63191 0.876379 -0.481004 -0.0243913
1.09519 -4.10723 1.61674 0.872985 -0.487741 -0.00250611
1.1339 -4.0544 1.58887 -0.856423 0.515528 0.0277667
1.12457 -4.05043 1.61267 -0.866427 0.499227 0.00873541
1.15192 -4.00864 1.59753 0.865568 -0.500595 -0.0139951
1.16645 -3.97987 1.59622 0.859888 -0.510045 -0.0211383
1.20956 -3.9209 1.56533 -0.865658 0.500614 -0.0046464
1.20903 -3.9075 1.58015 -0.859999 0.51026 -0.00606653
1.23873 -3.86195 1.56391 -0.877597 0.479396 0.00189148
1.24303 -3.84324 1.57394 -0.879194 0.475838 -0.0244332
1.27202 -3.79786 1.55903 -0.875959 0.481471 -0.0296899
1.28597 -3.76845 1.5596 -0.877965 0.478641 -0.00896774
1.30122 -3.73744 1.55904 0.915257 -0.402354 0.0204079
1.34364 -3.67633 1.5318 -0.98326 0.176896 -0.0436764
1.34739 -3.65753 1.54309 -0.992387 0.0962878 0.0767949
1.36818 -3.6197 1.5378 0.438848 0.860887 -0.25746
1.37055 -3.60231 1.55056 0.161752 0.963869 -0.211644
1.33153 -3.63174 1.60301 -0.497327 -0.863687 0.0819154
1.33595 -3.61234 1.61351 -0.346486 -0.932749 0.0996385
1.32735 -3.60782 1.63631 0.368544 0.929567 -0.00899289
1.31437 -3.60852 1.66305 -0.475678 -0.879345 0.0219954
1.28387 -3.62975 1.70585 0.578896 0.815017 -0.0250482
1.30363 -3.59285 1.7018 0.481002 0.876056 0.0341169
1.29859 -3.58479 1.72069 -0.469074 -0.881637 -0.051829
1.24906 -3.62937 1.77987 0.386954 0.855828 0.343256
1.30898 -3.54473 1.73968 0.461514 0.880908 0.10491
0.354717 -5.36829 1.91608 0.023495 0.999724 -5.93142e-05
0.339343 -5.36707 1.94947 0.110327 0.993885 0.00456039
0.353581 -5.35031 1.93677 -0.118209 0.991983 -0.0446786
0.324029 -5.35716 1.99159 -0.293301 -0.956006 -0.00525053
0.3307 -5.34453 1.99051 -0.188194 -0.976435 0.105632
0.42066 -5.28497 1.86303 0.839665 -0.542511 -0.02539
0.419885 -5.27567 1.87412 0.859486 -0.511009 -0.0123942
0.423949 -5.26361 1.8779 0.861325 -0.507923 -0.0115847
0.442295 -5.2431 1.86042 0.872399 -0.488782 0.00355279
0.443757 -5.23239 1.86827 -0.875877 0.482443 -0.00940377
0.483804 -5.19829 1.81925 0.867006 -0.497617 0.0260422
0.455519 -5.20556 1.87101 -0.878252 0.478142 -0.00737636
0.459557 -5.19318 1.87516 0.880411 -0.474148 0.00783036
0.477465 -5.172 1.85929 -0.873478 0.485655 -0.0342733
0.490045 -5.15395 1.85135 -0.861252 0.507647 -0.0232306
0.482417 -5.14886 1.8725 -0.862783 0.504986 -0.0243947
0.508394 -5.1218 1.84573 -0.869313 0.49359 -0.0257828
0.518452 -5.10494 1.84186 -0.873665 0.486081 -0.0208469
0.507829 -5.10192 1.86716 0.872207 -0.488951 0.0134859
0.518589 -5.08449 1.86241 0.867643 -0.497125 0.00788147
0.553952 -5.04986 1.82372 0.86851 -0.495552 -0.0108749
0.557054 -5.03729 1.83003 -0.860027 0.510224 0.00507261
0.560811 -5.02423 1.83547 -0.849006 0.528383 -0.000528865
0.546504 -5.02411 1.86552 0.860804 -0.508913 0.00486876
0.585087 -4.98586 1.82379 0.858269 -0.512512 -0.0265605
0.618079 -4.9511 1.79019 0.860213 -0.509362 -0.0241786
0.611899 -4.94493 1.8094 -0.860643 0.509065 0.0121231
0.626764 -4.92308 1.80056 0.866127 -0.499824 -0.000825496
0.661446 -4.88597 1.76583 0.865729 -0.500494 -0.00447449
0.644741 -4.88778 1.79892 -0.871106 0.491085 -0.00324341
0.648285 -4.87418 1.80535 -0.873165 0.487409 -0.00388017
0.649356 -4.8625 1.81501 0.869678 -0.493547 0.00851786
0.681837 -4.82596 1.7843 0.863689 -0.503931 0.00970615
0.696401 -4.80326 1.77697 -0.864857 0.501967 0.00710292
0.688377 -4.79862 1.79847 0.865274 -0.501227 0.00845635
0.715414 -4.76551 1.77565 -0.875478 0.483081 -0.0130922
0.713932 -4.75552 1.78892 0.884785 -0.465603 0.0191945
0.747075 -4.71676 1.75908 -0.867834 0.496848 0.0024356
0.753494 -4.69998 1.76275 -0.859328 0.511339 0.00937065
0.773103 -4.67193 1.75031 0.84729 -0.530997 -0.0118988
0.775558 -4.6583 1.75906 -0.85422 0.519901 -0.0033507
0.781664 -4.64151 1.76338 -0.857251 0.514845 -0.00746858
0.807234 -4.60768 1.74436 -0.872374 0.488833 0.0023762
0.813299 -4.59065 1.74902 -0.877219 0.480084 -0.0023423
0.830405 -4.56376 1.74063 -0.87615 0.482031 -0.00271646
0.852807 -4.53189 1.72624 -0.877486 0.479591 -0.00326842
0.877311 -4.49781 1.7097 -0.865126 0.501554 -0.000856
0.863492 -4.49832 1.73809 0.862524 -0.505941 0.0087312
0.90768 -4.44575 1.69921 -0.868113 0.495786 -0.0239883
0.909102 -4.43219 1.71005 -0.877258 0.479091 -0.0298391
0.880434 -4.44677 1.75516 -0.891366 0.453262 -0.00442882
0.920049 -4.39747 1.72252 0.864027 -0.502097 0.0368194
0.967289 -4.34035 1.68189 -0.878481 0.477777 0.000663012
0.963725 -4.33122 1.69865 -0.864663 0.502351 0.00107055
0.976709 -4.3062 1.69698 0.866476 -0.498518 -0.0264603
0.986246 -4.28437 1.69926 -0.866894 0.49737 0.0334479
0.995852 -4.26237 1.70158 0.873999 -0.485574 -0.0185498
1.04536 -4.20084 1.66071 0.85211 -0.52324 0.0113041
1.05798 -4.17533 1.6603 0.87139 -0.490306 0.0167255
1.06654 -4.15374 1.66438 0.871623 -0.487706 0.0491512
1.08561 -4.12145 1.65739 0.879258 -0.476341 0.00223061
1.11298 -4.08045 1.6419 -0.870206 0.492634 -0.00725728
1.13545 -4.04412 1.63191 -0.859261 0.511488 -0.00718724
1.13321 -4.03301 1.6479 0.857235 -0.514764 0.0129074
1.155 -3.99699 1.63903 0.87026 -0.49254 0.00717166
1.18835 -3.94857 1.61859 -0.872145 0.489238 -0.0030206
1.19034 -3.93279 1.63051 -0.871736 0.489964 -0.00352026
1.22367 -3.88372 1.61077 0.87214 -0.488458 0.0279405
1.26217 -3.82869 1.58631 -0.870065 0.492507 -0.0206032
1.26717 -3.80921 1.59569 -0.870434 0.492278 0.00247414
1.27413 -3.78757 1.60317 0.874736 -0.484436 0.0125938
1.31215 -3.73198 1.58027 -0.902981 0.426974 0.0481533
1.30972 -3.72032 1.59723 -0.90273 0.421469 0.0862649
1.34177 -3.67061 1.58083 -0.970783 0.233631 0.054748
1.38449 -3.60861 1.55463 0.176841 0.962509 -0.205681
1.35684 -3.62487 1.59591 -0.610715 -0.7855 0.100091
1.36116 -3.60552 1.60657 -0.302317 -0.951416 0.058419
1.35245 -3.60093 1.62945 -0.431781 -0.901643 0.0246106
1.33195 -3.60998 1.66312 -0.517883 -0.854337 -0.0436493
1.31081 -3.62008 1.69704 -0.634409 -0.772724 -0.0205689
1.30773 -3.60966 1.7141 0.564939 0.821151 0.0809595
1.29937 -3.60546 1.73585 0.515844 0.852273 0.086805
1.30085 -3.58992 1.7486 0.478495 0.863034 0.161912
1.27446 -3.60718 1.78621 0.366785 0.827776 0.424565
0.344258 -5.37139 1.95663 -0.0493685 -0.998648 -0.0163056
0.345857 -5.36142 1.96343 0.0673782 -0.997671 0.0106575
0.327569 -5.36215 2.00051 0.283147 0.958336 -0.0376683
0.334345 -5.34954 1.99929 0.176872 0.975216 -0.132931
0.397537 -5.30551 1.91329 -0.708099 0.703254 0.0634872
0.401701 -5.29369 1.91666 -0.764042 0.64324 0.0498256
0.411663 -5.27851 1.91147 0.838157 -0.545417 -0.00359237
0.420936 -5.26359 1.90743 0.871416 -0.490415 0.0113035
0.43363 -5.24651 1.8985 0.877436 -0.479226 0.0211676
0.457893 -5.22232 1.87287 -0.877402 0.479649 -0.0100874
0.447143 -5.21901 1.89845 -0.873317 0.486841 -0.0173825
0.455635 -5.20407 1.89606 -0.872918 0.487632 -0.0151573
0.47061 -5.18495 1.88448 0.87643 -0.481498 0.00556759
0.484706 -5.16617 1.87438 0.864152 -0.502958 0.0165503
0.508725 -5.14081 1.85045 -0.864009 0.503166 -0.0176636
0.488542 -5.14383 1.88912 -0.865956 0.500113 -0.00260442
0.498449 -5.12739 1.88531 0.860621 -0.509195 0.00722282
0.525299 -5.0995 1.85808 -0.871155 0.490712 -0.0170486
0.539353 -5.07985 1.84895 -0.856362 0.516364 0.00359814
0.550741 -5.06181 1.8437 -0.85985 0.510544 0.00177929
0.532679 -5.06403 1.8788 -0.857495 0.514247 -0.0158709
0.549349 -5.04222 1.86646 -0.867911 0.496714 -0.00249703
0.549328 -5.03201 1.87686 -0.863079 0.505044 -0.00509518
0.560067 -5.01411 1.87281 0.858959 -0.512024 0.00450866
0.585159 -4.98564 1.84981 -0.853401 0.521102 0.012644
0.593352 -4.9692 1.84955 -0.859447 0.511202 0.0047537
0.628232 -4.93283 1.81431 0.873987 -0.485926 -0.00481545
0.622464 -4.92645 1.83271 0.875825 -0.482193 0.0205142
0.639464 -4.90292 1.82143 0.867329 -0.497505 0.0151531
0.655823 -4.87963 1.81122 0.872853 -0.487952 0.00557081
0.637458 -4.88304 1.84574 -0.86646 0.499204 -0.0064795
0.658811 -4.85566 1.82936 0.859597 -0.510834 0.0118949
0.64689 -4.85431 1.85538 -0.865543 0.500832 -0.00123927
0.696397 -4.80406 1.80399 0.864942 -0.501835 0.00600266
0.727607 -4.76783 1.7762 -0.877567 0.479418 -0.00585435
0.723301 -4.76011 1.79294 -0.882623 0.469479 -0.0237969
0.724779 -4.74772 1.80245 -0.87375 0.485261 -0.032913
0.714619 -4.74503 1.82619 -0.878621 0.476727 -0.0274984
0.754836 -4.70023 1.78847 0.853872 -0.520161 0.0182888
0.742994 -4.69896 1.81425 0.856733 -0.514695 0.033141
0.740268 -4.69011 1.82887 0.859509 -0.510194 0.0307588
0.819663 -4.61044 1.74551 -0.875736 0.482778 -0.00340893
0.792525 -4.62237 1.78953 -0.861555 0.507452 -0.0146617
0.82722 -4.58041 1.76035 -0.879477 0.475897 -0.00644822
0.831925 -4.56454 1.76672 0.869258 -0.494358 -0.000754427
0.828698 -4.55573 1.78233 0.869755 -0.493473 -0.00333849
0.861948 -4.51409 1.75582 0.86228 -0.506365 -0.00825265
0.886306 -4.48006 1.73996 -0.879599 0.475713 -0.00191667
0.870013 -4.48301 1.77067 -0.873712 0.486321 -0.0109291
0.900034 -4.44338 1.74879 0.891544 -0.452902 0.00546528
0.915756 -4.41667 1.74337 -0.874295 0.484842 -0.0231779
0.909992 -4.40997 1.76209 -0.871365 0.490068 -0.0235805
0.921411 -4.3871 1.76168 -0.862486 0.505532 -0.0235606
0.969771 -4.32879 1.72083 -0.859198 0.511638 -0.00223797
0.992581 -4.2944 1.70855 0.864829 -0.50163 -0.0209455
1.03476 -4.2409 1.67561 -0.844128 0.535488 -0.0264822
0.982615 -4.27909 1.7447 -0.863842 0.503661 0.0101125
1.0122 -4.23751 1.72569 0.879679 -0.475059 -0.0220198
1.0756 -4.16196 1.67123 0.875902 -0.48064 0.0422054
1.03917 -4.1854 1.72279 -0.855219 0.517392 -0.0300914
1.09454 -4.11687 1.67781 0.868256 -0.495548 0.0237472
1.09335 -4.105 1.69231 0.872878 -0.487256 0.0258088
1.09414 -4.09117 1.70472 -0.867561 0.49694 -0.0197067
1.15314 -4.01739 1.65756 0.86695 -0.498262 0.0115317
1.13519 -4.02262 1.68937 -0.851653 0.523918 -0.0140276
1.17607 -3.96669 1.66157 0.870277 -0.491514 0.032121
1.21311 -3.91424 1.63818 0.880697 -0.473652 0.00520236
1.20314 -3.9111 1.66199 0.882382 -0.46685 0.0587657
1.22707 -3.87199 1.65218 0.865139 -0.50097 0.023745
1.25221 -3.83127 1.6415 -0.875251 0.483603 -0.0080459
1.25847 -3.81064 1.64948 -0.873527 0.486758 -0.00413232
1.30095 -3.75055 1.6226 -0.865725 0.500173 0.0186428
1.32391 -3.71128 1.61497 -0.927336 0.364811 0.0834289
1.33051 -3.68975 1.62316 -0.976267 0.199973 0.0831501
1.39568 -3.60318 1.57621 -0.954602 -0.233631 0.1848
1.36286 -3.62516 1.62179 -0.577213 -0.816315 0.0213249
1.34026 -3.63615 1.65736 -0.939318 -0.340052 -0.0452318
1.34758 -3.61369 1.66503 -0.633515 -0.771088 -0.0638844
1.33472 -3.61411 1.69119 -0.647884 -0.757319 -0.0819444
1.33993 -3.59408 1.70074 -0.507873 -0.860264 -0.0448477
1.31705 -3.60635 1.73559 0.583284 0.794007 0.17127
1.31844 -3.59088 1.74842 0.502765 0.849609 0.159349
1.32299 -3.57174 1.75843 0.430244 0.863118 0.264418
0.362855 -5.35941 1.95211 -0.261952 0.964869 0.0202384
0.344773 -5.35982 1.98867 -0.0105829 -0.991107 0.132644
0.40325 -5.31926 1.91007 0.715236 -0.694204 -0.0807348
0.388242 -5.31801 1.94203 0.628844 -0.772189 -0.0909942
0.41488 -5.29385 1.91197 -0.793113 0.607342 0.045916
0.426467 -5.27777 1.90453 0.877226 -0.480022 0.00730785
0.416491 -5.27391 1.92883 -0.867334 0.497651 -0.00864257
0.430762 -5.25612 1.91763 0.87877 -0.476926 0.0174453
0.416562 -5.25496 1.94784 -0.88496 0.463255 -0.0473296
0.436973 -5.23329 1.928 -0.877043 0.479756 -0.0250958
0.458978 -5.21033 1.90621 0.873628 -0.486458 0.011489
0.462369 -5.19852 1.91121 -0.869399 0.493862 -0.0156936
0.457544 -5.19183 1.92783 0.870488 -0.492189 -0.0011256
0.471061 -5.17361 1.9186 -0.865833 0.500108 0.0150191
0.476121 -5.16063 1.92137 -0.868732 0.495046 0.0153059
0.495795 -5.13808 1.90393 -0.869892 0.493109 0.0115105
0.52396 -5.10962 1.8751 0.873947 -0.485876 0.0118392
0.510552 -5.10851 1.90364 -0.867484 0.497415 0.0069965
0.519291 -5.09267 1.90178 0.871781 -0.48989 -0.00226574
0.559365 -5.05524 1.85766 0.868263 -0.496071 -0.00579172
0.553423 -5.04909 1.87602 -0.862437 0.506025 -0.011903
0.53312 -5.05315 1.91344 -0.865208 0.501122 -0.0170875
0.588463 -5.00386 1.85008 -0.8561 0.51675 -0.00784735
0.57681 -5.00182 1.87597 0.852843 -0.522156 0.00332484
0.600239 -4.97451 1.85565 0.858526 -0.512707 -0.00802166
0.613807 -4.9541 1.84854 -0.861665 0.507361 0.0108413
0.611926 -4.94498 1.8616 0.872396 -0.488717 0.00896037
0.6274 -4.92288 1.85229 0.875894 -0.482501 0.00119537
0.644986 -4.89897 1.84049 -0.867575 0.497164 -0.0119223
0.637706 -4.89388 1.86052 -0.863401 0.504205 -0.017761
0.636623 -4.88414 1.87258 0.858351 -0.513008 0.00746997
0.674929 -4.8436 1.83522 0.864731 -0.502223 -0.0034963
0.646694 -4.85513 1.88131 0.857902 -0.513803 0.00314707
0.681961 -4.81639 1.84834 -0.862076 0.506666 -0.0107022
0.696552 -4.79381 1.84132 -0.863263 0.504625 -0.0114227
0.686523 -4.7911 1.86457 -0.868486 0.49571 0.00195416
0.719027 -4.75358 1.83602 -0.887294 0.460717 -0.021198
0.724073 -4.73839 1.84105 0.877582 -0.478462 0.0303885
0.734997 -4.71823 1.83908 0.855639 -0.516722 0.0296646
0.775169 -4.67317 1.80247 -0.846886 0.531092 -0.0269233
0.756347 -4.67793 1.83616 0.853298 -0.520173 0.0360988
0.794357 -4.63401 1.80282 -0.854638 0.519153 -0.00858218
0.800489 -4.61726 1.8072 -0.866693 0.498738 -0.0101484
0.810192 -4.59733 1.8075 -0.879866 0.475164 0.00740217
0.823882 -4.57375 1.80334 -0.87154 0.48953 -0.0278967
0.83585 -4.55153 1.80132 -0.871759 0.489805 -0.0112598
0.834411 -4.54124 1.81466 0.875317 -0.483284 0.0160119
0.866489 -4.50056 1.79017 -0.873623 0.486267 -0.0181057
0.891366 -4.46602 1.7742 0.891169 -0.453573 0.00943799
0.904088 -4.44237 1.77209 -0.897269 0.441092 -0.0186027
0.913834 -4.42133 1.77342 -0.878665 0.477312 -0.0109832
0.913122 -4.41 1.78633 0.865319 -0.50097 0.0158645
0.930715 -4.3814 1.77926 0.851833 -0.523774 -0.00641759
0.964466 -4.33716 1.75495 0.8475 -0.530496 -0.0178214
0.962565 -4.32671 1.76939 -0.841729 0.539587 0.0183861
0.981665 -4.296 1.76138 -0.86379 0.50352 0.0182982
1.02455 -4.24181 1.72844 0.880318 -0.4743 -0.00893882
1.03229 -4.22159 1.73304 -0.881041 0.472586 -0.0207007
1.0201 -4.22105 1.75852 -0.895944 0.443721 0.0199251
1.02945 -4.19922 1.76145 -0.882576 0.470157 0.00355397
1.05071 -4.16532 1.75225 0.866814 -0.497722 0.0300941
1.0535 -4.14985 1.76217 0.862336 -0.505938 0.0200938
1.10578 -4.08388 1.72193 0.876894 -0.480678 0.00227712
1.11983 -4.05648 1.7209 -0.870574 0.491934 -0.0101128
1.17946 -3.98174 1.67449 -0.867811 0.495716 -0.0341947
1.16097 -3.98758 1.7064 0.873568 -0.486673 0.00529396
1.18755 -3.94644 1.69362 -0.880968 0.472909 -0.0158753
1.19093 -3.92947 1.70386 -0.886182 0.463152 -0.0131367
1.22731 -3.87739 1.68211 -0.867698 0.496847 -0.015576
1.23965 -3.85056 1.68397 0.867161 -0.497194 0.0288008
1.25604 -3.81925 1.68211 -0.870133 0.492505 -0.0175465
1.29306 -3.76534 1.66088 -0.855148 0.51821 0.0134393
1.28556 -3.75959 1.68204 -0.846961 0.531591 0.00828923
1.32872 -3.69828 1.65573 -0.973866 0.21804 0.0635888
1.36013 -3.64941 1.64088 -0.994262 0.079205 0.0718938
1.38902 -3.60295 1.62877 -0.394488 -0.91593 -0.0738363
1.3443 -3.63859 1.6842 -0.916148 -0.396909 -0.0560038
1.35752 -3.60958 1.68648 -0.674275 -0.738387 0.0117538
1.31397 -3.64481 1.73992 0.778955 0.602363 0.174321
1.33153 -3.61096 1.73822 0.611232 0.772369 0.172749
1.33673 -3.5911 1.74767 0.539605 0.833708 0.117288
1.30996 -3.60813 1.7852 0.528248 0.748989 0.399961
0.379455 -5.35771 1.94162 0.481157 -0.876587 0.00913247
0.343288 -5.36739 2.00501 -0.0880883 -0.991152 0.0992909
0.390078 -5.33354 1.94447 -0.598992 0.800129 0.0316507
0.406133 -5.31555 1.93011 -0.724135 0.688005 0.0477307
0.410699 -5.30362 1.93288 -0.763591 0.642705 0.0621135
0.405367 -5.29718 1.95015 0.762372 -0.646806 0.0207676
0.408206 -5.28623 1.95543 -0.820671 0.571321 -0.00955733
0.422198 -5.26884 1.94465 -0.885223 0.462541 -0.0493522
0.442964 -5.24726 1.92437 -0.879017 0.476206 -0.0236227
0.451135 -5.23284 1.92237 -0.874516 0.484447 -0.0230746
0.419182 -5.24247 1.9773 -0.875642 0.472561 -0.0996884
0.454475 -5.21161 1.93699 -0.865369 0.500391 -0.0273251
0.468015 -5.19366 1.92768 -0.87171 0.490021 0.000673677
0.480969 -5.17587 1.91939 -0.866658 0.498502 0.0200089
0.475507 -5.1696 1.93675 -0.864726 0.50224 -0.00199124
0.49088 -5.15003 1.92536 -0.864868 0.502 -0.000515177
0.485621 -5.1437 1.94236 0.865852 -0.499701 0.0244792
0.522643 -5.10955 1.90188 -0.866682 0.498817 0.00662223
0.526098 -5.09728 1.90725 -0.873443 0.486858 0.00820846
0.524838 -5.08817 1.91896 -0.869922 0.493174 -0.00388299
0.534666 -5.07152 1.91586 0.869481 -0.493833 0.0115102
0.537179 -5.0598 1.92256 0.867393 -0.497458 0.0128229
0.560577 -5.03342 1.90181 -0.863441 0.504175 -0.0166375
0.58731 -5.00431 1.87705 -0.854191 0.51991 -0.00716146
0.556186 -5.01637 1.92785 -0.862651 0.504691 -0.0334824
0.571814 -4.995 1.91776 0.852488 -0.522266 0.0224067
0.565243 -4.98972 1.93637 -0.852275 0.521773 -0.0371589
0.596133 -4.95675 1.9071 -0.859462 0.510596 -0.0248283
0.594541 -4.94769 1.91943 -0.864875 0.499982 -0.044824
0.646086 -4.89838 1.86484 -0.865007 0.501694 -0.00814965
0.634197 -4.89691 1.89035 0.874094 -0.485609 0.0119873
0.626172 -4.89268 1.91084 0.87065 -0.49142 0.0217787
0.693718 -4.82945 1.83791 -0.86549 0.500823 -0.0101759
0.67984 -4.82956 1.86585 -0.865748 0.500383 0.00987787
0.685308 -4.81448 1.86998 -0.864179 0.503181 0.00188142
0.698261 -4.7933 1.8651 -0.86678 0.498641 -0.00705803
0.713103 -4.77042 1.85813 -0.893299 0.449414 -0.00666216
0.73587 -4.74082 1.84188 -0.87237 0.487922 -0.0300497
0.717624 -4.74495 1.87463 -0.889414 0.456595 0.0215451
0.742146 -4.71356 1.85664 0.862611 -0.504227 0.0407074
0.767233 -4.68134 1.83834 0.851474 -0.523494 0.0307521
0.792834 -4.64833 1.8198 -0.844539 0.534985 -0.0233503
0.807173 -4.62466 1.81464 -0.861398 0.50793 -0.00139409
0.792294 -4.62618 1.84319 -0.858363 0.512846 -0.0142078
0.803982 -4.60468 1.84119 0.874781 -0.484316 0.0140259
0.838838 -4.56256 1.81311 -0.875996 0.482265 -0.00717101
0.836786 -4.55285 1.82704 -0.873319 0.487089 -0.00765935
0.836943 -4.54122 1.83843 0.877316 -0.479885 0.00523809
0.871947 -4.49802 1.81113 0.876897 -0.48026 0.0200619
0.887422 -4.47219 1.80584 -0.881353 0.471269 -0.0335188
0.88205 -4.46538 1.82357 0.879017 -0.476632 0.0122704
0.906849 -4.43064 1.80839 -0.874066 0.485793 -0.00381773
0.899167 -4.426 1.82859 0.867878 -0.496729 -0.00695714
0.918364 -4.39612 1.81985 0.862092 -0.506409 -0.0186316
0.951348 -4.35287 1.79669 -0.842988 0.537718 0.0152157
0.990614 -4.30314 1.76734 -0.860338 0.509583 0.0119419
0.96767 -4.31301 1.80381 -0.847583 0.530634 0.00559951
1.0048 -4.26474 1.77733 0.878415 -0.477522 -0.0190021
1.01479 -4.24259 1.77943 0.876286 -0.480838 -0.0302971
1.03665 -4.20859 1.76944 -0.882576 0.470156 0.00355405
1.03914 -4.1936 1.77949 -0.884509 0.46635 0.0127436
1.03497 -4.1853 1.79629 0.873447 -0.486615 -0.0172201
1.09214 -4.1151 1.75133 -0.860607 0.509212 -0.0076567
1.10795 -4.08622 1.74844 -0.859575 0.510831 0.0134832
1.11546 -4.06565 1.75397 -0.88562 0.464408 -0.00157129
1.14553 -4.02172 1.73738 0.853267 -0.520849 0.025528
1.13912 -4.01531 1.75678 -0.854057 0.519436 -0.027805
1.19042 -3.94865 1.72017 0.872068 -0.489332 0.00713644
1.17631 -3.95021 1.74713 -0.883265 0.468714 -0.0122981
1.19334 -3.91897 1.74413 0.871822 -0.489819 -0.0019389
1.21142 -3.88641 1.74034 0.858129 -0.512962 -0.022016
1.25215 -3.82929 1.71548 -0.867598 0.497112 0.0123626
1.27886 -3.7868 1.70424 -0.852295 0.523047 0.00391481
1.32108 -3.72709 1.67898 0.887359 -0.45976 -0.0348616
1.34417 -3.68779 1.67184 0.967774 -0.249945 -0.0306613
1.32963 -3.68972 1.69931 -0.986862 0.158673 0.0304394
1.36441 -3.63714 1.68191 -0.989572 -0.118801 -0.0814512
1.36805 -3.6189 1.6929 -0.821191 -0.569768 -0.0317778
1.37827 -3.59326 1.69805 -0.59347 -0.804844 -0.00436988
1.35269 -3.608 1.73494 -0.754904 -0.643759 -0.125277
1.31632 -3.63541 1.7809 0.840922 0.520038 0.149705
1.33213 -3.60364 1.78092 0.514153 0.743723 0.427227
0.371971 -5.35922 1.97639 0.363937 -0.926095 0.0994925
0.377669 -5.34712 1.97713 0.473303 -0.877855 0.0731772
0.404309 -5.32374 1.94729 -0.703961 0.710212 0.00612181
0.39193 -5.32114 1.97466 -0.663911 0.747381 -0.0253928
0.368504 -5.32489 2.01776 -0.417017 0.821292 -0.389329
0.412966 -5.291 1.96282 -0.827878 0.559775 -0.0356517
0.408657 -5.28414 1.97832 -0.838759 0.531028 -0.120388
0.408308 -5.27509 1.98809 -0.880922 0.454682 -0.1313
0.44509 -5.24432 1.94539 -0.879694 0.473207 -0.0470458
0.429774 -5.24393 1.97641 -0.87734 0.469836 -0.0976172
0.420257 -5.24034 1.99905 -0.872519 0.472043 -0.126042
0.450634 -5.21253 1.96618 0.863573 -0.500423 0.0617926
0.468713 -5.19187 1.95074 0.860908 -0.507671 0.0332751
0.48895 -5.16959 1.93262 0.869008 -0.494433 -0.0189919
0.475834 -5.16823 1.96021 -0.857369 0.511958 -0.0530889
0.491201 -5.14874 1.94902 -0.871679 0.489875 -0.0140719
0.49181 -5.13868 1.95789 -0.865948 0.499818 -0.0177736
0.497401 -5.12534 1.96009 -0.868354 0.495019 -0.0302797
0.522082 -5.09915 1.93699 -0.866617 0.498636 -0.0183827
0.530058 -5.08391 1.93632 -0.869454 0.493954 -0.00770103
0.520107 -5.08087 1.95927 -0.871043 0.490259 -0.0304991
0.549589 -5.05065 1.93062 -0.866724 0.498364 -0.0205589
0.549643 -5.04065 1.94054 -0.866734 0.496901 -0.0431417
0.57231 -5.01462 1.92131 -0.855799 0.516479 -0.0292692
0.583836 -4.99625 1.91668 0.857106 -0.514405 0.0275129
0.600352 -4.9741 1.90586 -0.865273 0.500404 -0.0299689
0.602475 -4.9623 1.91345 -0.858995 0.510867 -0.0338133
0.596778 -4.9563 1.93086 -0.861976 0.504593 -0.0488158
0.622799 -4.92661 1.90859 -0.874122 0.484804 -0.0295858
0.614424 -4.92264 1.92933 -0.871654 0.488915 -0.0343703
0.621765 -4.90678 1.93055 0.87766 -0.4788 0.0215212
0.646633 -4.87726 1.91042 0.855553 -0.517442 0.0168003
0.662653 -4.85431 1.9014 -0.856848 0.515547 -0.00484316
0.660418 -4.84556 1.91464 -0.853917 0.520239 -0.0133042
0.680313 -4.81922 1.90127 -0.864526 0.502513 0.00868843
0.713377 -4.78198 1.87249 -0.867389 0.497631 0.000429128
0.698471 -4.7833 1.90098 0.868959 -0.494849 -0.0058794
0.714274 -4.75965 1.89309 -0.89296 0.449783 0.0178261
0.721933 -4.74255 1.89492 0.886307 -0.462462 -0.024263
0.727469 -4.72714 1.89931 0.883648 -0.46758 -0.0231588
0.739107 -4.70652 1.89671 -0.873144 0.487385 0.00868205
0.784386 -4.65708 1.85573 -0.850135 0.525783 -0.0286717
0.789015 -4.64194 1.86165 -0.839944 0.542597 -0.00909715
0.787935 -4.63172 1.87407 -0.856065 0.516371 -0.0226576
0.812181 -4.59938 1.85801 -0.872825 0.487935 0.00976
0.846336 -4.55796 1.83123 -0.875803 0.482667 -0.00126848
0.83445 -4.55705 1.85592 0.873115 -0.487367 0.0119731
0.880535 -4.50431 1.81664 0.877399 -0.479265 0.021805
0.820198 -4.54725 1.89425 -0.875986 0.482228 -0.010222
0.852236 -4.50681 1.87073 0.877902 -0.478827 0.00350348
0.888062 -4.46245 1.84357 -0.867757 0.49682 0.0129425
0.900975 -4.43884 1.84142 -0.880172 0.474534 0.0107372
0.912024 -4.41681 1.84141 -0.868243 0.495962 0.0132901
0.912877 -4.40427 1.85229 -0.857574 0.514066 0.0174189
0.957022 -4.35063 1.81779 -0.836558 0.547802 0.00908738
1.00995 -4.28797 1.77478 -0.870118 0.492364 0.0217516
0.980066 -4.30444 1.81803 -0.861801 0.507182 -0.00810719
0.982459 -4.29002 1.82771 0.867096 -0.497936 0.0142939
1.0347 -4.22679 1.78663 -0.894243 0.447193 0.0186719
1.03779 -4.21132 1.79597 0.892498 -0.451007 -0.00629161
1.05731 -4.17952 1.78883 0.864586 -0.502346 -0.0118209
1.08454 -4.13975 1.77425 0.847607 -0.530317 -0.0180501
1.08386 -4.12777 1.78762 0.852886 -0.521192 -0.0307259
1.08999 -4.10891 1.79427 0.848382 -0.528276 -0.0342414
1.11143 -4.07436 1.78604 -0.866633 0.498215 0.0269988
1.14756 -4.02441 1.76388 -0.864007 0.503477 -0.00139974
1.14606 -4.013 1.77833 -0.867234 0.497866 -0.00594492
1.16889 -3.97624 1.76952 -0.865521 0.500171 -0.0264923
1.17867 -3.95293 1.77336 -0.881823 0.471487 0.00941907
1.19976 -3.91753 1.76666 -0.859353 0.511248 0.0117746
1.25276 -3.84791 1.73049 -0.86008 0.509825 0.0184576
1.24516 -3.84253 1.75108 0.86031 -0.509176 -0.0246309
1.26257 -3.81033 1.74857 -0.869074 0.493237 0.037793
1.26228 -3.79713 1.76238 -0.878144 0.477389 0.0310221
1.3267 -3.71326 1.71765 0.926237 -0.375217 -0.0360324
1.32376 -3.70262 1.73421 -0.967725 0.24616 0.0539875
1.36477 -3.64342 1.71156 -0.9921 -0.102837 -0.0718518
1.36426 -3.62993 1.7261 -0.968514 -0.248953 0.00176793
1.34133 -3.6416 1.76026 -0.961594 -0.209643 -0.177161
1.3456 -3.62297 1.7704 -0.778133 -0.514793 -0.359857
1.35204 -3.60186 1.7787 -0.641406 -0.658422 -0.393801
0.385813 -5.34061 1.98837 0.571655 -0.811 0.12446
0.390084 -5.32921 1.99131 -0.660551 0.734941 -0.15341
0.385977 -5.32234 2.0063 -0.646068 0.702055 -0.299525
0.410698 -5.2996 1.98012 -0.786746 0.599319 -0.147812
0.421406 -5.28435 1.97417 0.877555 -0.468302 0.102913
0.403242 -5.28543 2.00903 -0.811104 0.544297 -0.214129
0.426617 -5.26278 1.98541 -0.874906 0.468972 -0.120849
0.452892 -5.23806 1.95813 -0.869996 0.491982 -0.032579
0.442319 -5.2349 1.98221 -0.863738 0.491217 -0.112532
0.449054 -5.22148 1.9823 -0.861067 0.497579 -0.104781
0.471301 -5.19847 1.96127 -0.856725 0.513942 -0.043438
0.429854 -5.21469 2.02707 0.847933 -0.480286 0.224355
0.462313 -5.1851 1.99241 -0.845858 0.515761 -0.136067
0.492591 -5.1564 1.9612 -0.872284 0.48848 -0.0225291
0.506366 -5.13788 1.95244 -0.867775 0.496651 -0.0174266
0.530849 -5.11217 1.9297 -0.8698 0.493331 -0.00851441
0.507509 -5.11776 1.97029 -0.868622 0.490726 -0.0684398
0.518418 -5.1008 1.96565 -0.875661 0.481755 -0.0336167
0.512499 -5.09511 1.98305 -0.866827 0.490955 -0.0870284
0.524865 -5.07699 1.97669 -0.871922 0.486512 -0.0553015
0.563048 -5.04077 1.93735 -0.863709 0.50187 -0.0461982
0.588165 -5.01314 1.91526 0.85423 -0.519234 0.026212
0.556224 -5.0257 1.9659 -0.862912 0.503839 -0.0390969
0.562435 -5.01138 1.96793 0.855799 -0.514872 0.0501534
0.601767 -4.97292 1.92855 -0.859947 0.508901 -0.0388852
0.595973 -4.96701 1.94591 -0.86104 0.506887 -0.0409297
0.595079 -4.9576 1.95709 -0.862065 0.504473 -0.0484836
0.62238 -4.92706 1.93359 -0.871666 0.488857 -0.0348802
0.625636 -4.91436 1.93984 -0.85985 0.510277 -0.0165682
0.620751 -4.90788 1.95598 -0.867653 0.496629 -0.0231902
0.649681 -4.87533 1.93127 -0.856403 0.516146 -0.0129541
0.664516 -4.85338 1.92385 -0.8525 0.522697 -0.00567138
0.696325 -4.81783 1.89645 -0.87187 0.489646 0.00950392
0.676377 -4.82309 1.93066 -0.857994 0.513648 -0.0036366
0.704658 -4.78986 1.90791 -0.871352 0.490656 0.00151835
0.707634 -4.77679 1.91508 0.8792 -0.476437 -0.00397404
0.724852 -4.75202 1.90577 0.886107 -0.462386 -0.031829
0.733245 -4.73433 1.90684 0.883904 -0.467135 -0.0223364
0.715328 -4.73854 1.93808 -0.881408 0.472238 -0.0104949
0.74659 -4.70157 1.91318 -0.877831 0.478949 0.00445594
0.748398 -4.68923 1.92193 -0.86584 0.500276 -0.00676657
0.772877 -4.65742 1.90529 -0.850787 0.525262 -0.0161604
0.759711 -4.65789 1.93087 -0.863661 0.502998 -0.0328997
0.807024 -4.60573 1.88938 -0.85913 0.510178 -0.0401886
0.824182 -4.57948 1.88167 0.880733 -0.473421 0.0134704
0.839542 -4.5546 1.87614 0.867679 -0.49687 0.0159229
0.83106 -4.5509 1.89662 -0.87764 0.479173 -0.0118986
0.856165 -4.517 1.88083 0.878982 -0.476834 0.00445567
0.849411 -4.5118 1.89939 -0.869165 0.494425 -0.00976907
0.873278 -4.47859 1.88535 -0.869434 0.494048 0.000686832
0.881534 -4.45953 1.88807 0.87498 -0.484145 -0.00366526
0.903239 -4.42782 1.87681 0.864494 -0.502599 -0.00669297
0.914966 -4.40522 1.87619 -0.860497 0.509307 0.0123167
0.955579 -4.3551 1.84593 0.846176 -0.532893 -0.00337811
0.945044 -4.35328 1.86859 0.847522 -0.530729 0.00577357
1.00221 -4.28648 1.82224 -0.868945 0.494565 -0.0184329
1.00773 -4.26897 1.82882 -0.875524 0.483164 -0.0030346
1.00159 -4.26281 1.84711 0.87866 -0.477137 0.0172021
1.01586 -4.23669 1.84498 -0.877551 0.479214 -0.0160942
1.03595 -4.20464 1.83729 -0.873383 0.486269 0.0272881
1.06089 -4.16748 1.82507 0.854545 -0.519253 -0.0113954
1.0538 -4.16221 1.84435 -0.861186 0.508035 0.0160935
1.10631 -4.09673 1.80591 -0.861855 0.507137 0.0043613
1.08794 -4.10282 1.83617 0.863869 -0.503646 -0.00844403
1.12185 -4.05552 1.81635 -0.866576 0.49901 -0.00592831
1.17422 -3.98868 1.77952 0.86955 -0.493492 0.018645
1.12959 -4.02213 1.83439 -0.864336 0.502868 -0.00684581
1.19066 -3.94547 1.79018 -0.869547 0.49376 -0.00941594
1.20371 -3.91864 1.79116 -0.86615 0.499446 0.0183982
1.22493 -3.883 1.7848 -0.862411 0.505733 0.0219338
1.22259 -3.87228 1.80013 0.861191 -0.508208 -0.00863315
1.27003 -3.80808 1.77043 -0.873086 0.487342 0.0147571
1.27119 -3.79338 1.78284 -0.861236 0.508184 -0.00476155
1.32707 -3.71907 1.74655 -0.901038 0.431023 -0.0484854
1.33973 -3.69141 1.74912 0.99602 -0.0867211 0.0205816
1.34245 -3.6746 1.76055 -0.996835 0.0372312 -0.070242
1.36202 -3.63908 1.75732 0.986159 0.125612 0.108223
1.33456 -3.65586 1.79487 -0.988217 -0.0955815 -0.119549
1.33536 -3.64131 1.80784 -0.788438 -0.285327 -0.544934
0.424621 -5.21669 2.0564 0.82777 -0.504949 0.244586
0.505383 -5.15674 1.95803 0.869272 -0.492973 0.0366631
0.473171 -5.16766 2.0102 -0.841893 0.517229 -0.153919
0.463554 -5.16452 2.03215 0.839291 -0.499079 0.215664
0.493442 -5.13569 2.00236 -0.854723 0.507186 -0.110503
0.519391 -5.10901 1.97813 0.866144 -0.493405 0.0796623
0.49047 -5.11877 2.02502 -0.853291 0.491611 -0.173816
0.523524 -5.08694 1.99203 -0.874054 0.478997 -0.0811902
0.544948 -5.06259 1.97434 -0.866571 0.494157 -0.0697377
0.537664 -5.05789 1.99327 -0.870689 0.48665 -0.071229
0.541902 -5.04523 1.99758 -0.863291 0.498233 -0.0805729
0.579437 -5.00886 1.96034 -0.855518 0.515295 -0.0505958
0.580111 -4.99843 1.96941 -0.856528 0.513116 -0.055431
0.614659 -4.96339 1.93668 -0.862908 0.503039 -0.0483969
0.577984 -4.98017 1.99174 0.868962 -0.488667 0.0781653
0.602048 -4.95245 1.97225 0.855712 -0.513631 0.0627803
0.618923 -4.92978 1.96179 0.855062 -0.51756 0.0316456
0.603243 -4.93157 1.9907 -0.855796 0.516014 -0.0366367
0.650239 -4.88561 1.94449 -0.855968 0.51701 0.00436494
0.657161 -4.86996 1.94652 0.851221 -0.524772 0.00615596
0.658131 -4.85889 1.95564 -0.846391 0.531518 -0.0333242
0.690672 -4.82292 1.92777 -0.866268 0.499538 0.00648802
0.673878 -4.8258 1.95777 -0.86426 0.502552 -0.0222639
0.689822 -4.80263 1.94964 -0.869588 0.493721 -0.00757525
0.71119 -4.77483 1.93549 -0.877437 0.479531 -0.0123901
0.711865 -4.76371 1.94525 -0.880624 0.473621 -0.013612
0.727077 -4.74058 1.9385 -0.883083 0.469173 -0.0064415
0.752875 -4.70841 1.92004 -0.877605 0.479383 -0.00128831
0.741745 -4.70701 1.94323 -0.882018 0.471047 -0.0126297
0.764778 -4.67675 1.92827 -0.857044 0.514679 -0.0240894
0.778759 -4.65394 1.92362 -0.853823 0.519791 -0.0283448
0.77086 -4.64989 1.94311 -0.861084 0.506267 -0.0472048
0.816323 -4.59943 1.90438 0.863855 -0.503008 0.0271502
0.806178 -4.59726 1.9264 -0.863579 0.502797 -0.037776
0.82121 -4.57292 1.92121 -0.867972 0.495623 -0.0313316
0.860937 -4.5263 1.88988 0.875399 -0.483017 0.0192759
0.858548 -4.51712 1.90369 -0.869165 0.494426 -0.00976906
0.862683 -4.50208 1.91057 0.871966 -0.489157 0.0200098
0.872943 -4.4814 1.91109 -0.861184 0.50825 -0.00661828
0.889913 -4.45439 1.90476 -0.870286 0.491786 0.0273575
0.931383 -4.40435 1.87343 -0.856072 0.51676 0.00998918
0.928087 -4.39577 1.88842 0.862484 -0.506073 0.00333653
0.956675 -4.3571 1.87097 -0.848245 0.529567 -0.00631572
0.956689 -4.3453 1.88269 -0.858126 0.51323 -0.0146911
0.967383 -4.32327 1.8837 -0.866744 0.498218 -0.0231087
0.987854 -4.29166 1.87511 0.873948 -0.485263 0.0270972
1.01209 -4.25612 1.86305 0.876246 -0.48101 0.0286988
0.996088 -4.25979 1.89073 0.864976 -0.501635 0.0133911
1.0184 -4.22582 1.88089 0.863515 -0.504322 0.000412449
1.03272 -4.19952 1.87903 -0.868566 0.495445 -0.0113091
1.06186 -4.15821 1.86316 -0.855935 0.51693 -0.0125829
1.08426 -4.12331 1.85406 -0.863308 0.504587 0.00954661
1.11063 -4.0841 1.84149 0.872455 -0.488687 0.00262381
1.11602 -4.06603 1.84891 -0.873135 0.487324 0.0122394
1.13662 -4.03226 1.84224 -0.868982 0.494844 -0.000537053
1.14284 -4.01316 1.84909 0.865647 -0.500649 -0.0024304
1.178 -3.96375 1.82946 0.870369 -0.492012 -0.0195358
1.17522 -3.95382 1.84479 -0.856164 0.516695 0.00304052
1.23625 -3.87638 1.80246 -0.862988 0.504774 0.0213247
1.24183 -3.85725 1.81059 -0.864585 0.502233 0.0159723
1.2637 -3.82059 1.80428 -0.877605 0.479319 0.00790124
1.26717 -3.80354 1.81446 0.880828 -0.473404 -0.00552842
1.30074 -3.75378 1.79831 0.861548 -0.507432 0.0157748
1.33128 -3.70691 1.7852 -0.947311 0.313115 -0.0675397
1.33974 -3.68395 1.7915 0.968496 -0.227612 0.101033
1.35844 -3.6496 1.78912 0.991254 0.126756 -0.0367182
1.38644 -3.60466 1.77907 -0.770627 -0.489107 -0.408544
0.566375 -5.01781 1.99984 -0.849719 0.521471 -0.0777499
0.553031 -5.01766 2.02583 0.858248 -0.512681 0.0238559
0.582879 -4.98634 1.99911 0.869268 -0.488141 0.0780475
0.592393 -4.96952 1.99737 -0.871595 0.484045 -0.0776002
0.611328 -4.94559 1.98445 -0.858815 0.509314 -0.0551108
0.660762 -4.89851 1.93545 -0.857513 0.514373 -0.0096202
0.620706 -4.91854 1.99313 -0.856216 0.515433 -0.0349767
0.649179 -4.88674 1.96955 0.856657 -0.515884 -0.00160127
0.64915 -4.87658 1.97969 0.850899 -0.523665 0.0417855
0.639539 -4.87393 2.00093 0.853874 -0.519031 0.0387996
0.694173 -4.82078 1.94788 0.867741 -0.496991 0.00498214
0.671508 -4.82839 1.9842 -0.867436 0.48987 -0.0870703
0.689673 -4.80356 1.97368 -0.865433 0.497071 -0.0628219
0.703017 -4.78238 1.96885 -0.870878 0.488516 -0.0540764
0.712764 -4.76399 1.96823 -0.880874 0.47166 -0.0399799
0.726578 -4.74211 1.96318 -0.884342 0.466656 -0.013073
0.715711 -4.74065 1.98567 0.872539 -0.488219 0.0178252
0.7474 -4.70357 1.96111 -0.884802 0.46468 -0.0346071
0.75955 -4.68263 1.95835 -0.866423 0.49834 -0.0311168
0.762514 -4.66941 1.96573 -0.868177 0.495338 -0.0301551
0.775613 -4.64742 1.96218 0.863295 -0.503152 0.0394884
0.839863 -4.5807 1.90398 -0.877783 0.478778 -0.0164211
0.830427 -4.57782 1.92511 0.870317 -0.491156 0.0362362
0.806873 -4.58761 1.96099 -0.859866 0.506856 -0.0610532
0.849982 -4.53823 1.92653 -0.877188 0.47957 -0.0235558
0.85811 -4.51975 1.92912 -0.866435 0.499153 -0.0116409
0.881463 -4.48736 1.91603 -0.85922 0.511297 0.0177655
0.854091 -4.50111 1.9554 -0.861239 0.508103 -0.00993697
0.89325 -4.45389 1.92642 0.872385 -0.488606 -0.0144748
0.906268 -4.43045 1.92447 0.872481 -0.488404 -0.0154453
0.908471 -4.41699 1.93356 -0.869093 0.494549 0.00999653
0.93287 -4.38258 1.92046 0.863123 -0.50497 0.00484627
0.932657 -4.37126 1.9321 -0.868499 0.49512 -0.0238075
0.956701 -4.33672 1.91981 0.867001 -0.497647 0.0256247
0.957189 -4.32463 1.93086 -0.865164 0.500507 -0.0313616
0.999273 -4.2721 1.9015 -0.869774 0.492083 -0.0366943
1.00384 -4.25577 1.90886 0.856195 -0.51612 0.0234804
1.05301 -4.19538 1.87357 0.864552 -0.502397 0.0121548
1.02653 -4.20953 1.91079 -0.866142 0.499761 -0.0061515
1.07099 -4.15308 1.88072 -0.85639 0.516239 0.00964889
1.0945 -4.11716 1.87084 0.863218 -0.504751 0.00903102
1.0677 -4.13201 1.908 -0.867897 0.496743 -0.000616594
1.09712 -4.08981 1.8929 -0.86129 0.508084 -0.00556438
1.13332 -4.04027 1.87196 0.875223 -0.483696 -0.00474332
1.13823 -4.02267 1.87992 -0.865781 0.500149 0.0165572
1.15981 -3.98765 1.87288 0.863062 -0.504999 0.0099884
1.16486 -3.96973 1.88089 -0.86118 0.508009 0.0171686
1.18898 -3.93161 1.87198 -0.859144 0.511351 0.0198082
1.2318 -3.87333 1.84691 0.850953 -0.525176 0.0083173
1.25131 -3.83945 1.84275 -0.876613 0.481086 0.0102296
1.24567 -3.83241 1.86065 -0.867243 0.497719 -0.0128598
1.28785 -3.77367 1.83726 0.869793 -0.493397 -0.00444954
1.30106 -3.74598 1.83914 -0.869045 0.492561 -0.0463022
1.31039 -3.72241 1.84447 -0.91229 0.399545 -0.0899447
1.33826 -3.67828 1.83428 -0.955012 0.157606 -0.251223
0.667571 -4.83222 2.01189 0.852107 -0.509647 0.119057
0.719684 -4.78023 1.96346 0.876384 -0.479314 0.0470062
0.709048 -4.77839 1.98566 -0.872144 0.485385 -0.0613719
0.743106 -4.74015 1.95823 -0.883665 0.467991 -0.0110409
0.736255 -4.73522 1.97622 -0.88739 0.460708 -0.0169562
0.705017 -4.75075 2.02071 0.866801 -0.485399 0.114209
0.734616 -4.71562 1.99874 -0.888252 0.453739 -0.071615
0.777047 -4.6692 1.96335 -0.864188 0.501768 -0.0375119
0.767544 -4.66661 1.98411 -0.87146 0.487893 -0.0501803
0.806726 -4.62219 1.95297 -0.85238 0.520511 -0.0501771
0.767339 -4.6456 2.00527 -0.861946 0.504852 -0.0466266
0.809991 -4.59762 1.971 -0.858445 0.50913 -0.0621183
0.825959 -4.57266 1.96509 -0.861176 0.506027 -0.0480817
0.82649 -4.56127 1.97533 -0.869027 0.492702 -0.0451343
0.870793 -4.51054 1.94062 0.864065 -0.503322 0.00770842
0.837077 -4.52993 1.98603 -0.858643 0.511101 -0.0388255
0.870431 -4.48855 1.96305 -0.862732 0.505623 -0.00624515
0.907771 -4.44305 1.9365 -0.87047 0.492127 0.00962806
0.911415 -4.42833 1.94407 -0.870364 0.492183 0.0149087
0.932551 -4.39722 1.93434 0.865861 -0.500151 0.0115989
0.913796 -4.40344 1.96411 -0.878464 0.477717 -0.00935682
0.927353 -4.37928 1.96203 -0.875148 0.482246 -0.0394359
0.98191 -4.31574 1.92034 0.865194 -0.501277 0.0127011
0.968947 -4.31653 1.94439 -0.866212 0.499196 -0.0218961
0.994611 -4.28004 1.9313 -0.865888 0.500123 -0.0106933
1.00505 -4.2581 1.93298 -0.855548 0.517504 -0.015094
1.03841 -4.21348 1.91319 -0.863697 0.503969 -0.00654426
1.03186 -4.20802 1.93115 -0.86777 0.496857 -0.0103996
1.07516 -4.15289 1.9027 -0.861346 0.507944 0.00871473
1.06462 -4.15134 1.92443 -0.854703 0.518752 -0.0194677
1.05192 -4.15215 1.94795 -0.858707 0.509741 -0.0527791
1.14567 -4.04465 1.87463 0.873245 -0.487278 -0.00183542
1.12877 -4.04946 1.90225 0.871007 -0.491259 -0.00333936
1.13215 -4.03359 1.91148 -0.864417 0.502757 0.00439087
1.17304 -3.97869 1.88742 -0.862146 0.505897 0.0277991
1.17427 -3.96479 1.89881 0.862308 -0.505654 -0.0271732
1.20157 -3.92344 1.8874 0.856806 -0.515271 -0.0194863
1.21704 -3.89428 1.88657 -0.863999 0.503492 -0.000830685
1.22842 -3.86933 1.88944 0.871706 -0.490008 0.00457373
1.27297 -3.80865 1.8641 -0.881955 0.470929 -0.019549
1.26935 -3.79945 1.88013 0.877454 -0.479256 0.0197063
1.28275 -3.77182 1.88177 0.882311 -0.470392 0.0160732
1.29519 -3.7451 1.88435 -0.883285 0.467523 -0.0350792
0.766783 -4.64775 2.02901 -0.851601 0.519973 -0.0663679
0.798274 -4.60969 2.00681 -0.854761 0.512906 -0.0794375
0.818199 -4.58144 1.99688 -0.856561 0.496763 -0.139747
0.831056 -4.55922 1.9944 -0.860918 0.498518 -0.101488
0.829397 -4.54988 2.00674 -0.858137 0.503514 -0.100369
0.882321 -4.4912 1.96425 -0.860805 0.508904 -0.00568749
0.879417 -4.48272 1.97811 -0.858668 0.512428 -0.0103077
0.871056 -4.47932 1.99729 -0.860763 0.505396 -0.0605075
0.899894 -4.44162 1.97978 -0.873522 0.486685 0.00986817
0.927389 -4.40479 1.96395 -0.882413 0.470139 -0.0178074
0.923796 -4.39685 1.97858 -0.878383 0.477103 -0.0285749
0.934064 -4.37585 1.9798 -0.880268 0.471768 -0.0506208
0.954277 -4.34525 1.97164 0.862348 -0.504877 0.0381388
0.966374 -4.32221 1.97142 -0.86095 0.507749 -0.0309184
0.989958 -4.28789 1.96052 -0.878054 0.478494 -0.00808507
0.976423 -4.2895 1.98459 -0.867746 0.494417 -0.0506799
1.00239 -4.25252 1.9718 -0.866134 0.499807 -0.00225409
1.06188 -4.18203 1.92849 0.856637 -0.515878 0.00653786
1.01685 -4.21491 1.98145 0.866233 -0.497981 0.0406731
1.07048 -4.14945 1.94429 -0.859845 0.508353 -0.0473655
1.09625 -4.11142 1.9329 0.871723 -0.489518 0.0217234
1.10965 -4.08566 1.93288 -0.859678 0.508891 -0.0445326
1.11742 -4.06552 1.93799 -0.858549 0.511013 -0.0419411
1.14955 -4.0202 1.92175 -0.85892 0.511991 0.0110851
1.1317 -4.02632 1.94954 -0.868766 0.494856 -0.0190542
1.19015 -3.95306 1.91094 -0.862668 0.504636 0.0338663
1.19214 -3.93837 1.92163 0.872355 -0.488198 -0.0256634
1.19824 -3.91935 1.92882 -0.863953 0.503228 0.0186123
1.2329 -3.86987 1.91186 0.869841 -0.493239 0.00962637
1.25904 -3.82909 1.90248 0.875033 -0.483441 0.0245266
1.25143 -3.82438 1.92155 -0.87429 0.484789 -0.0244322
1.29772 -3.76135 1.89591 0.877615 -0.479355 0.0033109
0.94415 -4.36921 1.99416 -0.871999 0.486921 -0.0502581
0.951368 -4.35105 1.99845 -0.860678 0.506999 -0.0467389
0.938251 -4.35234 2.02179 -0.871652 0.489719 -0.0199527
0.996527 -4.28482 1.97877 -0.860475 0.508762 -0.0272918
1.01463 -4.25565 1.97346 -0.855596 0.517589 -0.00750646
1.00763 -4.25087 1.99128 -0.87196 0.487169 -0.0485017
1.04427 -4.20313 1.96942 -0.87023 0.492342 -0.0172905
1.03293 -4.20263 1.99118 -0.873845 0.48452 -0.0404289
1.06964 -4.15421 1.96987 -0.853388 0.515836 -0.0751084
1.0668 -4.14519 1.98405 -0.85307 0.516123 -0.076732
1.09742 -4.10229 1.96874 -0.87013 0.490689 -0.0458069
1.09787 -4.08983 1.98014 0.858157 -0.513268 0.0110936
1.1319 -4.04286 1.96242 -0.861135 0.507142 -0.035404
1.13876 -4.02359 1.96848 -0.864084 0.501381 -0.0444588
1.17076 -3.97807 1.95315 0.856938 -0.515251 -0.0131613
1.17676 -3.95941 1.96021 0.859036 -0.51186 -0.00748462
1.19025 -3.93281 1.96103 0.868363 -0.495642 -0.016863
1.22268 -3.88595 1.9462 -0.869063 0.494672 -0.00541199
1.25542 -3.83837 1.93152 -0.86262 0.505344 -0.022682
1.24139 -3.84066 1.95559 0.879162 -0.476515 -0.00285766
1.0817 -4.11052 2.01842 -0.844179 0.527913 -0.0931103
1.11738 -4.06214 1.99952 -0.858678 0.508995 -0.0599685
1.13062 -4.0365 2.00005 -0.855529 0.51534 -0.0499472
1.16787 -3.98576 1.98056 -0.854244 0.519273 -0.0249414
1.21107 -3.92833 1.95656 -0.875673 0.482651 0.0156596
1.1984 -3.92917 1.97927 0.872083 -0.489125 0.0151153
1.20377 -3.91109 1.98697 0.882536 -0.468005 0.0458457
1.223 -3.87822 1.98345 -0.873134 0.487349 -0.0113147
3.23338 -3.14142 1.45055 -0.932112 0.361809 0.0161959
3.25889 -3.13716 1.46662 0.935948 -0.352135 -0.00169707
3.25036 -3.14985 1.51854 -0.950318 0.3071 -0.0508523
3.23108 -3.16772 1.58086 -0.950253 0.310898 -0.0190063
3.21687 -3.18289 1.63702 -0.935111 0.353208 0.0284881
3.22531 -3.18683 1.66952 -0.923087 0.384526 -0.00711138
3.22911 -3.19297 1.70639 0.932049 -0.360609 -0.0352921
3.2118 -3.20927 1.76365 0.933476 -0.358268 0.0163083
3.21725 -3.21443 1.79795 -0.926589 0.375651 -0.0178567
3.21188 -3.22472 1.84231 0.928511 -0.370061 0.030366
3.2015 -3.23729 1.89086 -0.927996 0.372534 -0.00653421
3.2071 -3.24214 1.92382 0.929267 -0.365507 0.0535466
3.19896 -3.25342 1.96916 -0.930405 0.347308 -0.117152
3.27279 -3.14412 1.40864 -0.923249 0.378374 0.0666661
3.25833 -3.1597 1.46764 -0.922831 0.383946 0.0311213
3.2338 -3.18005 1.5363 -0.937475 0.347502 -0.0195621
3.23713 -3.1866 1.57503 -0.945958 0.324237 -0.00580445
3.23861 -3.19396 1.61526 0.928701 -0.370344 -0.0189922
3.23357 -3.20439 1.66162 0.932183 -0.361963 -0.00416175
3.2059 -3.22557 1.72991 -0.928448 0.371172 0.0146734
3.21802 -3.22753 1.75798 -0.926398 0.376511 -0.00519742
3.20638 -3.24074 1.80893 -0.93342 0.35818 -0.0208451
3.19659 -3.25294 1.8574 -0.931876 0.362473 -0.0148522
3.2101 -3.25406 1.88318 0.930571 -0.36569 -0.0175796
3.22424 -3.25486 1.9083 -0.928005 0.371925 -0.0218898
3.17398 -3.28562 1.9926 -0.916624 0.328142 -0.228305
3.22509 -3.18161 1.41676 0.922883 -0.383133 -0.038681
3.22508 -3.18992 1.46029 -0.926224 0.376248 0.023378
3.22145 -3.19989 1.50717 -0.937843 0.347029 0.00459041
3.22757 -3.20504 1.54325 -0.947026 0.320927 -0.0121662
3.22414 -3.21472 1.58889 0.94297 -0.332 0.024155
3.21723 -3.22596 1.63751 -0.941231 0.337758 0.00173843
3.20983 -3.2373 1.68597 -0.924654 0.380768 0.00558878
3.19278 -3.25308 1.74339 -0.934552 0.355631 0.0117904
3.2238 -3.24608 1.75274 -0.935584 0.352582 -0.0192212
3.21585 -3.25738 1.8002 -0.936982 0.348436 -0.0256359
3.235 -3.25594 1.82109 -0.937213 0.346138 -0.0426592
3.16974 -3.29364 1.92175 -0.93245 0.359088 -0.0399002
3.21184 -3.28144 1.92031 -0.935695 0.350556 -0.0398208
