ply
format ascii 1.0
comment Aron generated
element vertex 833
property float x
property float y
property float z
property float nx
property float ny
property float nz
end_header
0.291522 0.446345 0.177576 -0.0468087 0.994339 0.0953932
0.289966 0.447475 0.221279 -0.0742087 -0.917878 0.389863
0.23933 0.508872 0.281334 -0.148432 0.718634 -0.679362
0.209388 0.545038 0.324522 -0.0490037 -0.721967 0.69019
0.294841 0.449024 0.157613 0.011948 0.9991 0.0406896
0.300012 0.442143 0.179317 0.0605266 -0.997616 -0.033143
0.282141 0.463186 0.238274 0.0194888 0.786708 -0.617018
0.25097 0.501292 0.272395 0.156927 -0.694984 0.701692
0.242517 0.51153 0.286345 -0.146567 0.72007 -0.678246
0.230962 0.52563 0.300302 -0.0237672 0.674536 -0.73786
0.301227 0.450715 0.0159944 -0.159439 -0.777906 -0.607817
0.306098 0.443658 0.0571457 -0.0299678 -0.999417 0.0163365
0.305767 0.442876 0.109683 0.0410481 0.998683 0.0307828
0.304217 0.444486 0.124452 -0.0578249 -0.996692 0.0571001
0.298171 0.449749 0.226617 -0.0380416 -0.898739 0.436831
0.23698 0.524913 0.300537 -0.0159823 -0.679061 0.733908
0.312621 0.442967 0.0211337 -0.218712 -0.9755 0.0237641
0.310273 0.443175 0.130824 -0.021174 -0.995068 0.0969047
0.304564 0.44858 0.203355 -0.0197835 0.992946 -0.116903
0.305644 0.446719 0.222894 -0.0136675 -0.927876 0.372639
0.312836 0.446414 0.130627 -0.0179129 0.996512 -0.0815071
0.314173 0.443177 0.18587 -0.0146457 0.999885 0.00391672
0.311228 0.446833 0.189829 -0.0614906 0.997976 -0.016205
0.307538 0.450642 0.222638 -0.0461405 0.854138 -0.517995
0.298576 0.461624 0.239792 -0.0668715 0.749367 -0.65877
0.248155 0.524388 0.300943 -0.102425 0.712067 -0.694601
0.323922 0.442198 0.0133816 -0.0775683 -0.994454 -0.0710263
0.321062 0.444958 0.0442236 0.0472999 -0.996428 0.0699562
0.320434 0.445455 0.0545974 -0.104526 0.987863 -0.114899
0.319366 0.445266 0.106569 0.0140241 -0.999622 -0.023668
0.319185 0.442368 0.210549 0.00574786 -0.986044 0.166386
0.316423 0.445809 0.214579 0.0225808 -0.984937 0.171434
0.314472 0.448196 0.218846 -0.016476 -0.9617 0.273608
0.312882 0.450115 0.223219 -0.00577791 0.826442 -0.562993
0.248208 0.531045 0.305676 0.0267415 0.709597 -0.7041
0.327196 0.44454 0.0189589 -0.0339068 -0.999419 0.00344768
0.325627 0.44538 0.0558028 -0.104526 0.987863 -0.114899
0.328344 0.44162 0.0626599 0.00758803 0.999772 -0.0199729
0.323428 0.446907 0.0967139 0.00147722 -0.989841 -0.14217
0.325996 0.443187 0.108267 0.0251505 -0.999665 0.00611008
0.322915 0.445758 0.15239 0.0494866 0.99859 -0.0192139
0.290158 0.484835 0.261197 0.0397365 -0.715806 0.697168
0.335512 0.440307 0.0223512 -0.104337 0.991072 -0.0830079
0.327931 0.448913 0.0606858 -0.104526 0.987863 -0.114899
0.330845 0.443385 0.109137 -0.000509605 -0.999519 -0.0310079
0.331814 0.441918 0.114686 0.00505186 -0.999907 0.0126636
0.328746 0.443892 0.173146 0.0298342 -0.999277 0.0235855
0.323799 0.450275 0.176334 0.0298342 -0.999277 0.0235855
0.299964 0.478716 0.257528 -0.0126271 0.703544 -0.71054
0.291481 0.489565 0.265757 0.0397364 -0.715806 0.697168
0.339768 0.441412 0.0231194 -0.104337 0.991072 -0.0830079
0.331545 0.450279 0.0768584 0.0735376 0.996624 -0.0365057
0.33655 0.442769 0.100221 0.0289503 0.992579 0.118104
0.334331 0.443293 0.164329 -0.0255549 -0.995499 -0.0912627
0.338568 0.444105 0.16481 -0.0475756 -0.995628 -0.0803819
0.336355 0.445732 0.197834 -0.0417442 0.999116 -0.00504945
0.339759 0.440951 0.203602 -0.0623989 0.990799 -0.120096
0.316315 0.470614 0.245155 -0.077522 0.73463 -0.674024
0.311274 0.477007 0.253702 0.0675313 -0.685629 0.724812
0.347296 0.444878 0.0240302 -0.033343 0.994993 -0.0942139
0.346741 0.44293 0.0869792 0.0214239 -0.999645 -0.0158216
0.343575 0.44683 0.0956023 -0.0278678 -0.992573 -0.118417
0.341997 0.448553 0.10506 0.0153935 0.994875 0.0999361
0.340327 0.449322 0.13966 -0.0287107 0.999467 -0.0155492
0.342505 0.4455 0.160303 -0.0567896 -0.997947 -0.0296268
0.342435 0.44497 0.174866 -0.0447674 0.998883 0.0151421
0.340034 0.446404 0.216983 -0.0683218 0.956092 -0.28499
0.32176 0.46982 0.245662 -0.0362338 0.729541 -0.682977
0.294848 0.504461 0.284252 -0.0691855 0.708332 -0.702481
0.351698 0.446435 0.00864556 -0.0359746 0.996732 -0.0723334
0.350107 0.447419 0.0346291 -0.0356986 0.996215 -0.079251
0.350631 0.442237 0.132908 -0.0118194 -0.999024 0.0425496
0.337433 0.455796 0.229653 0.0268328 0.832264 -0.55373
0.354595 0.448072 0.0355592 -0.0550253 0.998174 0.0249192
0.35459 0.445309 0.0931089 -0.0302909 -0.997327 -0.0664898
0.353742 0.445274 0.118016 -0.0518798 0.997768 -0.042043
0.346284 0.451198 0.207698 -0.00660556 0.945239 -0.326312
0.350113 0.445661 0.213494 0.000968253 0.948141 -0.317849
0.315465 0.490652 0.267168 -0.0568415 0.709458 -0.702452
0.310944 0.496664 0.271233 -0.0456718 0.697887 -0.714751
0.284739 0.530932 0.306815 0.066201 -0.669965 0.739435
0.360292 0.444317 0.0894672 -0.0136379 -0.999019 -0.0421335
0.362879 0.439383 0.116033 -0.00475638 0.999987 -0.00154461
0.357349 0.446167 0.133287 0.125514 -0.988381 0.0857271
0.356034 0.447517 0.142591 0.0736303 -0.99543 0.060811
0.352664 0.449545 0.194552 -0.0190596 -0.999663 -0.0176327
0.365233 0.44773 0.0225194 -0.05466 0.998477 -0.00747419
0.367587 0.442376 0.0610604 -0.0154655 0.99988 0.000499995
0.363839 0.447181 0.0691845 0.0669378 -0.997736 0.00648029
0.362813 0.446456 0.109523 -0.0157203 0.999776 0.0141871
0.303004 0.519971 0.298227 0.0556487 -0.664751 0.74499
0.288146 0.540035 0.311473 0.0228095 0.639097 -0.768788
0.375168 0.440376 0.0273293 0.0254339 0.999506 0.0184704
0.369153 0.447899 0.0444404 -0.00301804 0.999938 -0.010675
0.36871 0.444496 0.116023 -0.00626996 -0.99998 0.00112377
0.363583 0.446164 0.214893 -0.0109707 -0.936159 0.351407
0.3572 0.454224 0.231681 0.0364885 0.816978 -0.575513
0.336105 0.48267 0.255031 -0.0669595 0.693684 -0.717161
0.292114 0.541553 0.311534 0.0498561 -0.674395 0.736685
0.293245 0.539679 0.316468 -0.0117368 -0.683116 0.730215
0.288641 0.545916 0.321048 0.0173749 0.651495 -0.758454
0.375549 0.446185 0.0361238 0.0296084 0.999265 0.0243536
0.374567 0.445462 0.0720336 0.0624654 -0.99804 0.00374625
0.374146 0.444572 0.0972729 -0.0242926 0.999266 0.0296169
0.371959 0.440915 0.211905 0.133866 0.98576 -0.101775
0.364089 0.450891 0.232689 -0.00880677 0.845217 -0.53435
0.356364 0.461727 0.235407 0.0417888 0.797316 -0.602114
0.332379 0.493673 0.272689 0.0946258 -0.706564 0.701294
0.311272 0.522484 0.293652 -0.0530094 0.71929 -0.692684
0.288623 0.552831 0.325758 -0.0262443 0.669555 -0.742299
0.381116 0.444674 0.0431343 -0.0235412 -0.999625 0.0140066
0.377286 0.448716 0.0667209 0.00922827 -0.999949 -0.00403082
0.381014 0.442586 0.0792415 0.0618711 -0.997762 0.0253567
0.351317 0.474547 0.252207 0.00979575 -0.676101 0.736744
0.322108 0.514186 0.289768 -0.019664 0.658894 -0.751979
0.303168 0.53973 0.316708 -0.0126997 -0.709053 0.705041
0.385471 0.445204 0.0440667 -0.0143293 -0.999729 0.018346
0.386097 0.443931 0.0497052 0.021211 -0.999482 0.0242058
0.383604 0.445647 0.0790367 0.0555543 -0.997604 0.0412379
0.381736 0.446789 0.103247 0.0501569 -0.998603 -0.0166392
0.382626 0.444822 0.113691 0.00816561 -0.997377 -0.0719273
0.376944 0.452927 0.115747 0.0165989 -0.999762 0.0141343
0.380506 0.447325 0.122512 0.0143681 -0.998682 0.0492731
0.378617 0.446366 0.179644 -0.115296 -0.992477 -0.0411907
0.377979 0.445793 0.202802 -0.0418404 -0.997831 -0.0508227
0.365222 0.461831 0.240766 -0.00108772 0.734873 -0.678204
0.352992 0.478838 0.251958 0.00331929 -0.654316 0.756214
0.341603 0.493973 0.273209 -0.0573946 0.692933 -0.718714
0.330211 0.50999 0.280937 -0.00397277 -0.683111 0.730304
0.316815 0.528282 0.298388 -0.0224847 -0.722122 0.6914
0.390749 0.445362 0.0299036 -0.0336315 -0.998831 -0.0347117
0.384437 0.451015 0.0828877 -0.0836505 0.995261 0.0495801
0.389754 0.441338 0.110977 0.0782483 -0.995947 -0.0443595
0.389231 0.441456 0.120543 -0.0966141 0.993686 0.0570389
0.382275 0.448904 0.160937 -0.0889509 -0.996035 -0.00105725
0.341917 0.500708 0.268091 -0.0693642 0.717254 -0.693351
0.3378 0.50582 0.281576 -0.0663553 0.730174 -0.680031
0.308357 0.546528 0.316644 -0.00663475 -0.693027 0.720881
0.305445 0.55015 0.326108 -0.0229506 -0.452453 0.891493
0.392854 0.449646 0.0239713 -0.0573193 -0.993737 -0.095926
0.394811 0.444808 0.0515911 0.0232367 -0.999026 0.037509
0.392443 0.447324 0.0655143 -0.00643201 0.998448 -0.0553195
0.395138 0.441794 0.087493 0.0265761 -0.998886 -0.038987
0.388687 0.446038 0.162425 -0.088951 -0.996035 -0.00105725
0.387108 0.447412 0.175999 -0.0963414 -0.994401 -0.0434259
0.387355 0.445396 0.199415 -0.00525721 -0.999228 -0.0389363
0.385889 0.446622 0.212731 0.0871797 -0.962533 0.256768
0.32478 0.530465 0.303343 -0.0219402 -0.722974 0.690527
0.319848 0.537442 0.307673 -0.0420866 -0.704745 0.708211
0.317052 0.540912 0.317012 -0.035182 -0.713589 0.699681
0.398563 0.449601 0.00462711 -0.12398 -0.96579 -0.227767
0.400881 0.442542 0.0537152 0.0567191 0.997867 -0.0323335
0.396013 0.449278 0.0607754 -0.0079447 0.998819 -0.0479423
0.354619 0.495994 0.264581 -0.0936801 0.696244 -0.711666
0.350161 0.502007 0.273169 -0.0703763 0.717782 -0.692702
0.324396 0.537159 0.317296 -0.0542585 -0.735913 0.674899
0.404856 0.446227 0.0178932 -0.00105656 -0.977293 -0.211892
0.406107 0.443869 0.0241287 0.00930523 -0.996946 -0.0775357
0.399446 0.448728 0.0916383 0.0750631 -0.996841 -0.0259597
0.398968 0.447945 0.111294 0.0878513 -0.996134 0.000467993
0.400193 0.442007 0.164901 -0.0127117 -0.999779 0.0167379
0.39775 0.443972 0.18725 0.0315272 -0.999418 -0.0130178
0.396119 0.443679 0.223194 0.00980249 0.88922 -0.457376
0.322407 0.547007 0.321729 0.0580383 -0.617784 0.784203
0.409015 0.447323 0.0135151 -0.0756934 -0.975592 -0.206134
0.410551 0.443641 0.0305087 -0.0525797 -0.996853 -0.0593239
0.407635 0.446175 0.0543452 0.0427358 0.994787 -0.0925853
0.407756 0.44517 0.0646704 0.00255136 0.998471 -0.0552198
0.40469 0.449174 0.0728574 0.00575098 0.998024 -0.0625689
0.405095 0.447734 0.08324 0.0142877 -0.998531 0.052268
0.399817 0.447505 0.186982 0.0315271 -0.999418 -0.0130179
0.402692 0.442691 0.192654 0.00548583 -0.999887 -0.0140122
0.384783 0.466313 0.2375 -0.0414446 0.720497 -0.692218
0.385484 0.464874 0.242221 -0.0254916 0.681499 -0.731375
0.340774 0.527831 0.303998 0.0449436 0.725788 -0.686449
0.415505 0.443814 0.021574 -0.0351952 -0.983432 -0.177828
0.408533 0.448967 0.0886048 0.0207973 -0.99969 0.0136707
0.406386 0.445941 0.165156 -0.0127117 -0.999779 0.0167379
0.403352 0.446131 0.219213 0.075264 0.919769 -0.385175
0.397816 0.453631 0.231114 0.0381661 0.734581 -0.677447
0.353277 0.516921 0.291021 -0.0398649 0.749861 -0.660393
0.329217 0.550853 0.326512 -0.0859871 0.622822 -0.777624
0.419884 0.443118 0.0331481 -0.0142513 -0.998603 -0.0508853
0.416292 0.446251 0.0614283 0.0523373 0.99437 -0.0921384
0.414427 0.448808 0.0652581 -0.00256306 0.998049 -0.0623795
0.420575 0.438518 0.0744065 0.00634643 0.998652 -0.0515088
0.414524 0.446497 0.0905138 -0.0331204 -0.9974 0.0639961
0.410848 0.445333 0.170551 -0.0357007 -0.99936 -0.00217017
0.369476 0.500813 0.269794 -0.0735031 -0.730269 0.679194
0.415328 0.452748 0.0842229 -0.0336317 -0.998519 0.0427569
0.415253 0.450228 0.113973 -0.0510738 0.995176 0.0837624
0.375075 0.499072 0.270265 -0.0579627 -0.743843 0.665836
0.36739 0.509949 0.282858 -0.0189531 0.784818 -0.619437
0.427055 0.448808 0.0026375 -0.0107666 -0.981571 -0.190793
0.425656 0.445383 0.0639218 -0.0165851 -0.994976 0.0987304
0.421335 0.444347 0.149331 0.0350592 -0.998969 0.0288336
0.405062 0.462083 0.23533 -0.00131846 0.685596 -0.727981
0.429247 0.445231 0.0794999 0.0713663 0.997316 -0.016373
0.42452 0.448818 0.120858 0.111526 0.990591 0.0793233
0.426243 0.443273 0.150368 -0.0148965 -0.999839 0.00998781
0.392617 0.486003 0.263348 0.0245561 -0.609147 0.792677
0.366186 0.52407 0.305023 -0.0217313 -0.689097 0.724344
0.436709 0.446988 0.0111701 -0.0410567 0.995689 0.0831746
0.437066 0.440837 0.067926 -0.0330369 -0.995839 0.0849333
0.43234 0.447269 0.0796706 0.0438631 0.998856 -0.019048
0.429959 0.449777 0.0930342 0.0977831 0.994849 -0.0267218
0.428 0.448735 0.13565 0.0489052 0.99849 0.0250172
0.422936 0.452934 0.175625 0.0786944 -0.995993 0.0424915
0.408781 0.46895 0.243837 0.0146125 -0.685151 0.728254
0.403841 0.476114 0.251625 -0.0102077 0.669873 -0.742405
0.397911 0.484874 0.259334 3.65891e-05 -0.664048 0.74769
0.377032 0.515608 0.287593 -0.00326827 0.779705 -0.626138
0.371973 0.522888 0.296138 -0.00397485 -0.737898 0.6749
0.441985 0.44439 0.0236346 -0.0734153 0.992194 0.100808
0.441665 0.442326 0.049065 -0.00359597 -0.999986 0.00383005
0.436131 0.446613 0.0951548 0.108448 0.993692 -0.028551
0.439645 0.439219 0.111896 -0.108131 -0.99398 -0.0176478
0.437008 0.440271 0.143626 -0.0223933 -0.999525 -0.021171
0.432304 0.443434 0.187529 0.0166302 0.99784 0.0635538
0.42919 0.445861 0.213308 -0.10588 0.966725 -0.232878
0.430183 0.443769 0.218068 0.0453192 -0.971909 0.230954
0.428893 0.445453 0.222069 0.0153156 -0.864266 0.502802
0.365783 0.538869 0.309048 0.0485897 0.517544 -0.854276
0.355345 0.553967 0.326909 -0.266099 0.0897785 -0.959756
0.446475 0.44518 0.0145703 -0.0207081 0.998668 0.0472626
0.444583 0.447347 0.023411 -0.0415331 0.994689 0.0941713
0.438529 0.452893 0.0649406 -0.033037 -0.995839 0.0849333
0.437928 0.448728 0.114044 -0.0931201 -0.995025 -0.0354034
0.435072 0.442878 0.214387 0.00852291 -0.973335 0.229232
0.405932 0.48577 0.259841 -0.00813472 -0.710667 0.703482
0.401583 0.492505 0.26345 0.048056 -0.737716 0.673398
0.390769 0.507544 0.288701 -0.0421594 -0.759755 0.648841
0.373129 0.533738 0.314025 -0.00681554 -0.560491 0.828133
0.450597 0.446054 0.0104189 0.0070459 0.999097 0.0418919
0.447005 0.442451 0.0985397 0.10289 0.994391 0.024501
0.440675 0.443142 0.188732 -0.0774757 -0.995669 -0.0513838
0.434497 0.45263 0.195316 -0.119725 -0.987203 -0.105344
0.428242 0.458825 0.233501 -0.0241776 -0.735092 0.677536
0.416425 0.476266 0.252613 0.0169625 -0.673407 0.739078
0.404433 0.494893 0.263457 -0.0825362 0.739462 -0.66812
0.383445 0.525478 0.301033 0.0096965 -0.702919 0.711204
0.375573 0.537074 0.313987 -0.0202394 -0.48893 0.872089
0.4544 0.444007 0.0371215 0.0208482 0.999483 0.0244848
0.447008 0.444859 0.139883 0.0174728 -0.999352 -0.0314749
0.443482 0.448855 0.156751 -0.0561636 -0.99592 0.0706327
0.440541 0.446829 0.218836 0.101845 -0.940791 0.323328
0.419608 0.478934 0.24378 -0.0122757 -0.668362 0.743735
0.411672 0.490364 0.259874 -0.0354265 0.680874 -0.731544
0.394934 0.51507 0.288485 0.0355427 0.706945 -0.706375
0.394097 0.515469 0.297404 -0.0314455 0.75014 -0.660531
0.374165 0.546365 0.318248 0.0382687 -0.257195 0.965601
0.455285 0.449913 0.0355265 0.0208482 0.999483 0.0244848
0.455362 0.446853 0.0609924 0.00837389 0.999938 0.0074101
0.455084 0.446769 0.0657923 0.00630353 0.999938 0.00919151
0.455973 0.442925 0.0862072 -0.0111519 -0.99734 -0.0720344
0.453912 0.443762 0.10908 -0.031616 0.999492 -0.00396256
0.449388 0.445709 0.158321 0.00296556 0.999953 0.00927219
0.427919 0.471838 0.24521 -0.0199634 -0.686363 0.726985
0.426669 0.472961 0.253732 0.0358497 -0.697813 0.715383
0.396771 0.519287 0.28834 0.0279338 0.713394 -0.700206
0.463583 0.441376 0.0501475 -0.0040253 -0.999835 -0.0176987
0.461451 0.443417 0.0634918 -0.0324111 0.999378 0.0139172
0.456157 0.44819 0.099091 -0.00792299 -0.999943 0.0071915
0.45647 0.441468 0.151325 -0.0352484 0.999167 0.0205805
0.382114 0.547978 0.318396 0.00434386 0.17161 -0.985155
0.459214 0.446563 0.128023 0.0928013 -0.993796 -0.0612946
0.458941 0.446476 0.132576 -0.0473781 0.998872 -0.00330005
0.455114 0.447094 0.181293 -0.0370331 -0.998673 0.0357766
0.456165 0.443599 0.19516 0.0107683 -0.999583 0.0267934
0.443637 0.460777 0.230457 0.0292979 -0.767261 0.640665
0.433424 0.475951 0.249644 -0.0168547 -0.672871 0.739568
0.4016 0.524718 0.297275 -0.0264336 0.70931 -0.704401
0.467042 0.447571 0.0684936 0.0053057 0.999712 -0.0234039
0.464039 0.444549 0.133953 0.0851986 -0.995662 -0.0373992
0.461541 0.443279 0.178484 -0.000133084 -0.99958 0.0289932
0.45907 0.445451 0.195264 0.0107684 -0.999583 0.0267935
0.455599 0.448311 0.220334 -0.149694 0.890821 -0.428987
0.426341 0.493352 0.265093 0.0264977 0.697871 -0.715733
0.419599 0.502956 0.281577 0.0183586 -0.74771 0.663771
0.397941 0.536306 0.31463 0.0759195 -0.583776 0.808358
0.47569 0.445616 0.0228116 -0.0157051 -0.99871 -0.0482902
0.46899 0.441005 0.14912 -0.00410093 0.998049 0.0623049
0.461545 0.445793 0.212792 0.109998 -0.943225 0.313412
0.418174 0.512244 0.285343 0.0184694 -0.769443 0.638449
0.478709 0.449011 0.0126593 0.00399047 0.999984 -0.00407891
0.48061 0.444731 0.0196059 -0.0120532 -0.999789 0.0166344
0.477921 0.441785 0.0774946 -0.018501 0.998265 -0.0559073
0.471195 0.44789 0.120894 -0.071335 0.996211 0.0497432
0.455162 0.460332 0.240229 -0.0376414 0.736929 -0.674921
0.426334 0.506291 0.277341 0.0428927 0.767942 -0.639081
0.485422 0.445412 0.0059899 0.00565199 0.999976 -0.00396431
0.485165 0.445195 0.0109363 0.00565199 0.999976 -0.00396431
0.479439 0.447781 0.0667198 -0.0450489 0.998901 -0.0129793
0.478687 0.447185 0.0808983 -0.0177636 0.999829 -0.0051014
0.474314 0.448834 0.12587 0.0925332 -0.994435 -0.0503637
0.474759 0.447365 0.130833 0.0835367 -0.994785 -0.0585152
0.476679 0.440024 0.159506 -0.0680972 0.997552 -0.0159099
0.471761 0.448521 0.161476 -0.0238231 0.999708 -0.00397681
0.471405 0.446102 0.183833 0.0400535 -0.998416 0.0395095
0.458397 0.461561 0.2404 -0.0505871 0.741397 -0.669157
0.438271 0.493954 0.265869 0.00927434 0.698225 -0.715819
0.432992 0.50291 0.269197 0.0538655 0.771537 -0.6339
0.416556 0.527698 0.30219 -0.0110675 0.697068 -0.71692
0.491129 0.440758 0.0191382 -0.0103406 0.99979 0.0176977
0.486127 0.449704 0.0195465 -0.0601205 0.997938 -0.0224712
0.481878 0.448007 0.0861167 -0.0844122 0.996404 -0.0073077
0.477433 0.447129 0.149367 -0.0756671 0.995163 0.0626438
0.478676 0.442882 0.163685 -0.018767 0.999344 -0.030961
0.477425 0.443959 0.172039 -0.048569 0.998172 -0.0359722
0.474756 0.448318 0.17522 -0.0346708 0.997943 -0.0539178
0.407425 0.549325 0.318973 -0.0473525 -0.268941 0.961992
0.490716 0.446408 0.0365572 -0.0476768 0.996424 0.0697604
0.484127 0.446456 0.119275 0.0225289 -0.999337 0.0285898
0.483054 0.44783 0.12328 0.034242 -0.995662 -0.086518
0.4831 0.446396 0.13265 0.0513517 -0.995995 -0.073185
0.417804 0.539407 0.310645 0.0533449 0.476045 -0.877802
0.496929 0.444992 0.0194132 0.0209148 0.999168 -0.0350077
0.491096 0.445402 0.0889558 -0.0846219 0.996183 0.0214411
0.483123 0.446383 0.181176 0.00716652 -0.998016 0.0625561
0.482922 0.444809 0.194304 -0.0317865 0.999495 0.000425227
0.480235 0.446691 0.214903 0.0205201 0.947181 -0.320044
0.459443 0.479438 0.251476 0.0082965 -0.696409 0.717598
0.441855 0.507119 0.282539 0.025485 0.699633 -0.714048
0.471825 0.465969 0.236953 -0.00164172 0.744143 -0.668019
0.453271 0.495167 0.27111 -0.0444856 -0.729104 0.682956
0.432729 0.527762 0.307169 -0.0156918 0.726885 -0.68658
0.503701 0.446436 0.0257613 0.0154418 0.997935 -0.0623527
0.496816 0.445717 0.113025 -0.0388529 -0.999242 0.00248693
0.491966 0.452378 0.128532 0.0437052 0.997033 -0.0633605
0.495622 0.440211 0.162665 0.0416723 -0.998649 0.0310373
0.507926 0.447406 0.0170015 0.0273907 0.998856 -0.0391959
0.502905 0.447244 0.0773638 -0.00678771 0.994315 -0.106264
0.49323 0.448047 0.186688 -0.00130056 0.999019 -0.0442689
0.493677 0.446468 0.19128 0.00319896 0.998391 -0.0566186
0.453738 0.507269 0.283184 0.042856 0.705218 -0.707694
0.435217 0.537794 0.311243 -0.00350252 -0.637847 0.770155
0.498997 0.449826 0.152625 -0.0511489 0.993259 0.104021
0.498351 0.445273 0.187899 -0.0268018 0.99876 -0.0419577
0.477888 0.474974 0.245016 -0.0395108 0.688439 -0.724217
0.436459 0.542514 0.315499 -0.0325271 -0.655783 0.754249
0.433003 0.547712 0.324028 -0.0602576 -0.528276 0.846932
0.513303 0.450671 0.0271395 0.00482709 0.996317 -0.0856077
0.515488 0.444398 0.0393762 -0.00572898 0.99679 -0.0798522
0.514219 0.44621 0.0431646 -0.0520779 0.997736 0.0425439
0.500666 0.451 0.170102 -0.0313473 0.999131 -0.0274874
0.499506 0.447437 0.204593 0.0612827 0.9901 -0.126281
0.496748 0.450067 0.220575 -0.139153 -0.882158 0.449927
0.497591 0.447677 0.225126 -0.0474081 -0.861714 0.505174
0.492695 0.45599 0.231836 -0.0302768 -0.774224 0.632187
0.473058 0.488366 0.264497 0.0241001 -0.726484 0.686761
0.451496 0.524816 0.295007 0.0777331 -0.667655 0.740401
0.520399 0.444645 0.0264702 0.0321136 0.98672 -0.159223
0.51449 0.447711 0.0754652 -0.0439837 -0.998696 -0.0259301
0.512699 0.450622 0.0788103 -0.0426338 -0.999015 0.0123312
0.510512 0.451866 0.0963112 0.0157491 0.998517 0.0521144
0.515196 0.439701 0.113961 -0.108324 -0.993639 0.0307714
0.509627 0.446451 0.137735 -0.0249276 -0.999372 -0.0251877
0.508475 0.446472 0.150634 0.0220194 0.996315 0.0828893
0.508107 0.44491 0.163859 0.0437008 -0.99889 0.0175654
0.509539 0.441219 0.169087 0.0479335 -0.998278 0.0338257
0.505087 0.444281 0.201631 -0.0105231 0.999935 0.00434997
0.504021 0.444233 0.213959 -0.0642661 -0.964152 0.257451
0.494307 0.459399 0.235747 -0.0028792 -0.752184 0.658947
0.468242 0.503274 0.275746 -0.0299615 0.65379 -0.756083
0.468146 0.502723 0.28003 0.0217496 -0.641852 0.76652
0.453917 0.527113 0.299321 -0.05239 0.69804 -0.71414
0.442922 0.545728 0.315575 -0.00812499 -0.665396 0.746446
0.526746 0.442729 0.009942 -0.0688373 -0.992566 0.100367
0.511339 0.445012 0.168665 0.044641 -0.9981 0.0424658
0.507278 0.447969 0.197168 0.00930298 0.999786 -0.0185006
0.508611 0.443727 0.20634 0.0291886 0.99433 -0.102253
0.497503 0.461097 0.231725 -0.0412781 -0.760963 0.647481
0.489513 0.474273 0.246139 0.010315 -0.691692 0.722119
0.455029 0.531995 0.30346 0.0286032 -0.722573 0.690702
0.449878 0.539924 0.315952 -0.0146439 0.717775 -0.696121
0.527494 0.446553 0.023166 -0.0594488 -0.991206 0.118223
0.52416 0.449236 0.0449635 -0.0120796 0.999598 0.0256594
0.525362 0.442204 0.0706349 -0.0975825 -0.994991 -0.021684
0.524611 0.440351 0.0891271 0.0928524 0.994195 0.0543628
0.517234 0.445114 0.143842 -0.0405905 -0.999173 -0.00222503
0.509451 0.44787 0.214112 -0.107958 -0.951128 0.289311
0.489404 0.479752 0.258109 0.0182557 0.706137 -0.707839
0.476 0.503887 0.271942 0.067774 -0.681428 0.72874
0.523768 0.443989 0.119163 -0.0630592 -0.997697 0.0249688
0.521228 0.447721 0.126549 -0.0833183 -0.995979 0.0329265
0.517466 0.449009 0.160354 -0.0191755 -0.999424 -0.027985
0.51637 0.442467 0.207544 0.00708146 0.999974 -0.00105125
0.514855 0.444069 0.215317 -0.0190142 -0.920455 0.390386
0.472895 0.514838 0.288013 -0.0357758 -0.695277 0.717851
0.458292 0.538929 0.316217 -0.021924 0.722178 -0.69136
0.451249 0.551569 0.324317 0.0247681 -0.574721 0.817975
0.530251 0.449464 0.060533 -0.0394724 -0.999155 -0.0114599
0.527942 0.448123 0.0922926 0.0934845 0.994407 0.0491555
0.525559 0.447971 0.118571 -0.0630593 -0.997697 0.0249687
0.5182 0.448507 0.194428 0.00896649 0.999861 0.0140752
0.515275 0.45307 0.201642 0.00708149 0.999974 -0.0010512
0.519114 0.442548 0.216058 0.0210967 -0.948544 0.315941
0.508674 0.460515 0.232966 0.00354678 -0.743867 0.668319
0.507095 0.463025 0.236619 0.0160683 -0.724682 0.688897
0.493864 0.485818 0.257908 -0.030851 -0.714388 0.69907
0.484047 0.502144 0.276808 0.0394483 -0.718942 0.69395
0.536356 0.447876 0.0441449 0.0130659 0.999914 0.00140044
0.53624 0.441511 0.0781549 0.0867266 0.993492 0.0738441
0.531083 0.451101 0.0831753 0.115614 0.992535 0.0388232
0.53103 0.445714 0.111479 -0.0217675 -0.999749 -0.00536971
0.530595 0.444873 0.120395 -0.0120659 -0.999906 0.00643642
0.521293 0.444571 0.220103 -0.00357141 -0.926861 0.375389
0.49106 0.496141 0.273513 1.09723e-05 -0.705721 0.70849
0.46503 0.541995 0.312019 -0.0673518 0.632125 -0.771934
0.545877 0.443511 0.00617449 -0.0147807 -0.9926 0.120524
0.547802 0.438065 0.0135224 -0.0119211 -0.992894 0.1184
0.540204 0.445505 0.05523 -0.0190629 0.999797 0.00655372
0.538534 0.448312 0.0584952 0.0121053 0.999739 0.0193674
0.531505 0.447168 0.137461 0.0191184 0.997968 -0.0607876
0.524332 0.445546 0.220332 -8.47318e-05 0.926994 -0.375077
0.507355 0.475257 0.24765 0.00118968 0.706828 -0.707385
0.505632 0.478091 0.251332 0.00670068 0.720028 -0.693913
0.49999 0.488413 0.258158 -0.0289857 -0.714746 0.698783
0.469048 0.542589 0.307833 -0.0556536 0.660052 -0.749156
0.464097 0.549498 0.324636 -0.0673348 0.612414 -0.787665
0.54604 0.445437 0.0337815 0.00252277 -0.99178 0.127934
0.541431 0.44125 0.101764 -0.0123136 -0.99969 0.0216515
0.536288 0.44627 0.129963 -0.00790924 0.99874 -0.0495539
0.527809 0.450689 0.195435 0.014293 -0.999891 -0.00359647
0.528282 0.447919 0.204187 -0.0446276 0.996213 -0.0746147
0.494771 0.503111 0.277404 -0.0273921 -0.707437 0.706245
0.486438 0.51915 0.284232 0.0549729 0.678093 -0.732918
0.4873 0.516447 0.288661 0.0549729 0.678093 -0.732918
0.535921 0.446716 0.168201 0.0182281 -0.999195 0.0357282
0.509336 0.484806 0.255115 -0.00307798 -0.73338 0.679812
0.504422 0.493719 0.262183 -0.0229385 -0.712385 0.701414
0.555034 0.4444 0.0228736 -0.0294279 0.990524 -0.134149
0.547771 0.443888 0.0981348 -0.0487019 -0.998476 0.0259404
0.547483 0.442576 0.107192 0.056281 0.998026 -0.0278553
0.543754 0.442454 0.145176 0.0167433 0.999759 -0.0141806
0.540439 0.447175 0.156253 -0.00599951 -0.99994 -0.00913216
0.537557 0.440918 0.214561 -0.0515704 0.980694 -0.188627
0.531157 0.452523 0.224234 -0.000197415 0.851556 -0.524264
0.552666 0.443691 0.0861194 -0.0369557 0.997569 0.0590812
0.551407 0.44563 0.0896907 0.013057 -0.999114 -0.0400085
0.512222 0.492472 0.262886 0.0163292 0.722124 -0.691571
0.500433 0.513008 0.285393 -0.0811223 -0.703443 0.706107
0.492732 0.527154 0.29673 -0.0950339 -0.656755 0.748092
0.490659 0.529848 0.304902 -0.100245 -0.690844 0.71602
0.562405 0.443795 0.025364 -0.102971 0.987744 -0.117294
0.547335 0.444327 0.17059 -0.030301 -0.999538 0.00230395
0.542834 0.448039 0.198001 -0.0130053 -0.997441 0.0703052
0.528419 0.470586 0.237897 -0.0222762 -0.709533 0.70432
0.522947 0.478293 0.256872 -0.00218552 0.722757 -0.691099
0.518532 0.48728 0.259739 -0.0201543 0.747802 -0.663615
0.517479 0.487788 0.26777 0.0163091 0.731458 -0.681692
0.498833 0.520939 0.301468 0.0942284 0.680191 -0.726953
0.567719 0.442802 0.0134697 -0.0833142 0.983316 -0.161705
0.555159 0.442912 0.134603 0.0437502 0.996459 -0.0717988
0.541164 0.453103 0.225316 0.00136816 0.845687 -0.533677
0.539263 0.455594 0.232781 0.0453723 0.735879 -0.675591
0.517534 0.494705 0.271283 -0.0367432 -0.720232 0.692759
0.565235 0.447324 0.0524889 -0.00120498 0.999324 -0.0367533
0.563945 0.439413 0.098852 -0.0720532 0.996849 0.0331697
0.558816 0.447587 0.112801 -0.00460901 0.999835 -0.0175493
0.558681 0.446846 0.117281 0.0102193 0.999695 -0.022466
0.557342 0.443778 0.143293 0.0459593 0.998862 -0.0127712
0.555827 0.446374 0.146629 -0.0312354 -0.999244 0.0231617
0.525388 0.487723 0.260245 0.00758251 0.752387 -0.658677
0.498621 0.536934 0.304895 0.140513 0.642717 -0.753107
0.575452 0.443318 0.00648434 -0.089268 0.984588 -0.150395
0.566176 0.444517 0.0892462 0.0668931 -0.997312 -0.0299136
0.565038 0.441812 0.111401 -0.0612521 0.997873 0.0223151
0.558137 0.448998 0.146493 0.0396358 0.998235 -0.0442363
0.559441 0.443746 0.156244 -0.0204766 0.999392 -0.028221
0.552916 0.448166 0.199411 -0.00547024 -0.995405 0.095597
0.544153 0.458981 0.236872 -0.0190667 -0.707963 0.705992
0.494377 0.549981 0.325258 0.0434165 -0.536604 0.842716
0.563392 0.448746 0.130667 0.00376489 -0.999084 0.0426316
0.565515 0.44242 0.136831 -0.0200829 -0.999642 0.0176881
0.560776 0.448677 0.155445 -0.0204766 0.999392 -0.0282209
0.554899 0.446379 0.219925 0.0392581 0.912394 -0.407425
0.549598 0.455022 0.233974 -0.0293222 -0.702448 0.711131
0.539824 0.475166 0.242558 -0.0475726 -0.716173 0.6963
0.536186 0.480729 0.253721 -0.0421915 -0.739732 0.671577
0.532875 0.486504 0.260953 -0.0108194 -0.754595 0.656101
0.579148 0.447963 0.0198607 0.0253549 0.999577 -0.0142729
0.576914 0.448788 0.0372209 0.0536016 0.99615 -0.0693653
0.571006 0.440369 0.125857 0.0448444 -0.998246 0.03866
0.567745 0.445189 0.136637 -0.0116039 -0.999738 0.019738
0.539063 0.481012 0.257953 -0.0132121 -0.7331 0.679992
0.528318 0.500319 0.279685 -0.0414134 -0.721396 0.691283
0.512472 0.530287 0.305709 -0.0382051 -0.669792 0.741565
0.583404 0.445789 0.0220061 -0.00785882 0.999384 -0.0342087
0.578729 0.449254 0.0511837 0.0924672 0.995132 -0.0340945
0.577411 0.44654 0.073957 -0.0251752 -0.995463 -0.0917605
0.576019 0.448935 0.0772734 -0.0251752 -0.995463 -0.0917605
0.565176 0.445656 0.189553 0.037324 -0.998518 0.0396179
0.560538 0.450722 0.212075 -0.0583265 -0.959187 0.27669
0.549426 0.469422 0.24016 -0.0723579 -0.709864 0.700612
0.533045 0.499416 0.27198 0.0130515 0.740092 -0.672379
0.572083 0.446495 0.153866 -0.0344676 0.998691 -0.0378037
0.572646 0.442814 0.162967 -0.0694809 0.997567 -0.00575833
0.570287 0.445435 0.174247 -0.0968829 0.994554 0.0384287
0.569619 0.442728 0.190751 -0.0214329 0.999631 -0.0166754
0.561144 0.453081 0.227634 -0.0254758 -0.840344 0.541454
0.550418 0.474111 0.243711 -0.0156989 -0.687243 0.726258
0.539256 0.49382 0.268847 -0.0244039 0.73687 -0.675594
0.514317 0.539735 0.317742 -0.01688 0.459055 -0.888248
0.584912 0.448251 0.0621947 0.112069 0.993643 -0.0107204
0.584689 0.445034 0.076351 -0.0101719 0.996988 0.076892
0.57407 0.448672 0.157896 -0.067673 0.997659 -0.00983212
0.569129 0.446651 0.209874 0.0697579 0.973622 -0.217242
0.563516 0.454212 0.231678 -0.0267518 -0.810609 0.584976
0.554773 0.471604 0.244417 -0.0319085 -0.680486 0.732066
0.589712 0.4456 0.0599697 0.112716 0.993622 -0.00310893
0.581395 0.450098 0.117216 0.0387875 -0.999026 -0.0210432
0.583016 0.440963 0.136614 0.0291479 -0.999338 0.0217535
0.573209 0.445578 0.206658 0.0539987 0.989516 -0.133947
0.57072 0.447485 0.221718 -0.0478598 -0.937395 0.344965
0.565311 0.456755 0.235462 -0.023701 -0.779987 0.625347
0.550097 0.487112 0.258287 -0.0160901 0.729333 -0.68397
0.537948 0.509421 0.283666 -0.00944333 0.705667 -0.708481
0.597898 0.445729 0.0175564 -0.0681883 0.997599 0.0120909
0.598038 0.439808 0.0377816 -0.0293489 0.999285 0.02382
0.598003 0.438546 0.0426589 -0.0293489 0.999285 0.02382
0.593357 0.447366 0.0515686 0.00231781 -0.999994 0.00264703
0.587544 0.444937 0.111495 0.0438651 -0.998905 0.0162995
0.586577 0.445024 0.119687 -0.0315267 0.999378 0.0157978
0.587103 0.44237 0.124672 -0.00845443 0.998452 0.0549658
0.578585 0.448003 0.179182 -0.0820378 0.996125 0.0317031
0.574773 0.446408 0.218484 -0.0650879 -0.954996 0.289388
0.547848 0.496657 0.273222 -0.0421542 0.745792 -0.664844
0.593451 0.448142 0.0777291 0.0196921 0.999375 0.0293688
0.590788 0.44624 0.107669 0.120056 -0.992283 -0.0309989
0.590618 0.445414 0.112082 0.094885 -0.995458 -0.00776636
0.582409 0.448786 0.171605 -0.0564453 0.998005 0.0282797
0.58001 0.447973 0.19539 0.0127986 -0.999837 -0.0127771
0.578812 0.443035 0.223346 -0.00194601 -0.906562 0.422068
0.572034 0.457158 0.232254 -0.0163487 -0.801664 0.597551
0.534111 0.530442 0.302473 -0.0233261 0.672359 -0.739857
0.601262 0.439467 0.0695605 -0.0111626 -0.999937 0.00143454
0.597714 0.446717 0.0749645 0.0106178 0.9982 0.0590221
0.59586 0.446475 0.0917993 0.00692477 -0.999517 0.0303005
0.581227 0.449605 0.207126 0.0162718 -0.994097 0.107264
0.573125 0.461485 0.23572 -0.0259172 -0.761998 0.647061
0.565285 0.474867 0.256832 -0.0355676 -0.68369 0.728905
0.556324 0.493277 0.270131 0.0408722 -0.715264 0.697658
0.541908 0.521843 0.295188 -0.00817585 0.649632 -0.760205
0.603243 0.440209 0.0784779 0.0154972 0.999539 -0.0261133
0.602093 0.44072 0.0865624 0.00084445 0.999673 -0.0255486
0.599192 0.446188 0.0927263 0.00588556 -0.998948 0.0454724
0.598951 0.445502 0.0971225 0.0250019 -0.999522 0.0182041
0.595589 0.449528 0.112138 0.0906121 -0.995247 -0.0356738
0.588118 0.449373 0.17649 -0.0542306 0.99839 0.0166297
0.587563 0.448391 0.184574 -0.062793 0.997384 0.0358147
0.587837 0.441575 0.205444 -0.0767189 0.995051 -0.0631441
0.585029 0.445501 0.216061 -0.00496057 -0.972495 0.232872
0.568161 0.476992 0.252966 -0.0427395 -0.679736 0.732211
0.557705 0.498282 0.269813 0.0499008 -0.708789 0.703653
0.551805 0.508766 0.284522 -0.0422555 0.724845 -0.687615
0.546319 0.519296 0.295541 -0.00217219 0.656121 -0.754653
0.610613 0.447034 0.021217 -0.0987541 0.991954 0.0792086
0.590001 0.441701 0.213445 0.0598462 -0.992087 0.110369
0.557737 0.503233 0.281302 0.0206124 -0.729051 0.684149
0.615789 0.445879 0.00983555 -0.077067 0.992509 -0.0947945
0.612419 0.448258 0.0303178 -0.15319 0.987756 -0.0295222
0.609668 0.450366 0.0465022 0.0787524 -0.996791 0.0143151
0.591322 0.449022 0.204723 -0.0767189 0.995051 -0.0631441
0.587803 0.451193 0.227143 -0.0213539 0.852278 -0.522654
0.585195 0.455818 0.233903 -0.0603536 0.83285 -0.550199
0.569458 0.488285 0.259786 -0.0104936 -0.712966 0.70112
0.567897 0.491212 0.263312 0.00216741 -0.726867 0.686775
0.60929 0.452003 0.0721223 -0.0827275 0.993793 0.0743718
0.597152 0.446566 0.190382 0.0230776 -0.999714 -0.00624224
0.594269 0.448185 0.209154 -0.0846318 0.992071 -0.0929154
0.582993 0.466605 0.243886 0.0202818 -0.68508 0.728186
0.573877 0.48635 0.256432 -0.0489633 -0.685614 0.726317
0.557729 0.517074 0.292259 -0.00094378 0.680633 -0.732624
0.548504 0.536478 0.306804 -0.0196702 0.622163 -0.78264
0.540258 0.551832 0.326174 -0.218317 0.130707 -0.967085
0.605917 0.446562 0.144104 -0.0474001 0.996332 -0.0712493
0.601946 0.444358 0.183723 -0.0322424 -0.99941 -0.0118312
0.597326 0.446956 0.213617 0.0702929 -0.994962 0.0714754
0.594277 0.450366 0.228031 -0.0597641 0.84391 -0.533145
0.584918 0.469945 0.243692 0.0340897 -0.685653 0.72713
0.559494 0.519976 0.296138 0.0307735 0.655782 -0.754323
0.557096 0.525133 0.299712 0.0260004 0.64785 -0.761324
0.623485 0.448604 0.0203655 -0.0273652 0.995781 -0.0875922
0.621946 0.448495 0.0332563 -0.290404 0.956844 -0.0107228
0.605398 0.445957 0.176133 -0.0434576 -0.998761 -0.024266
0.599633 0.447765 0.217629 -0.101171 0.937174 -0.333869
0.578785 0.490504 0.256443 -0.0125466 -0.660971 0.750307
0.578809 0.487824 0.264492 -0.0155305 -0.692893 0.720874
0.553456 0.540075 0.310841 0.0431863 -0.512192 0.857785
0.624323 0.447668 0.0431052 -0.32794 0.943558 0.0464093
0.621549 0.451486 0.0540492 0.266466 -0.963793 0.00995741
0.621557 0.445029 0.0734301 0.166791 -0.985989 -0.00264015
0.617239 0.448978 0.0964814 0.0504337 -0.998505 0.0210793
0.615916 0.449946 0.104266 0.00597615 -0.999702 0.023661
0.614111 0.443444 0.138457 -0.095628 0.994387 -0.0452725
0.611314 0.447447 0.149031 0.0375712 -0.998325 0.0439954
0.593516 0.464604 0.24137 0.0486877 -0.728554 0.683256
0.589743 0.472633 0.247715 0.00852161 0.677179 -0.735769
0.589038 0.473302 0.251411 -0.0277998 -0.677058 0.735405
0.00949127 0.647489 0.175867 -0.95316 0.302368 0.00772581
0.00970807 0.637774 0.199382 -0.989129 0.1467 0.0101714
0.00950596 0.631065 0.211139 0.999404 -0.0217226 -0.0268237
0.0101255 0.624426 0.233215 0.981873 -0.116066 -0.149845
0.00923309 0.603632 0.266265 -0.941488 0.273587 0.196853
0.00900753 0.652414 0.100606 -0.754874 0.618493 -0.218247
0.0105577 0.595836 0.246614 -0.997467 0.0399868 0.0588272
0.0111907 0.597309 0.251532 -0.985551 0.169314 -0.00461307
0.00922268 0.621959 0.113312 -0.991043 -0.133123 -0.0105625
0.00945515 0.615385 0.131616 -0.998366 -0.0410932 0.0396961
0.00919753 0.560638 0.255165 0.999952 -0.00395001 0.00896697
0.0110966 0.567497 0.264268 0.99973 0.0144189 -0.0182143
0.00964525 0.548228 0.289838 -0.993626 -0.0955254 0.059856
0.0111235 0.544465 0.318027 0.662387 0.494319 -0.562932
0.0127437 0.54976 0.327086 0.339721 0.803759 -0.488428
0.00921629 0.607397 0.0883434 -0.998372 -0.0213676 0.0528918
0.00968916 0.602516 0.106464 0.999189 0.0382988 0.0124463
0.00909292 0.588725 0.131785 -0.999891 0.0147819 0.000445988
0.00974255 0.590225 0.136864 -0.999804 0.0145735 -0.0134282
0.00957759 0.574767 0.171989 0.999981 -0.0036903 -0.00492981
0.0105422 0.551396 0.241352 0.999735 -0.022986 0.00112076
0.00975486 0.540513 0.257091 0.999824 -0.013793 0.0127082
0.00981614 0.532702 0.276776 -0.989002 -0.0910013 0.116592
0.00993152 0.529371 0.286368 0.879393 0.281286 -0.384117
0.00976089 0.591269 0.0754265 -0.999052 -0.0135246 0.0413733
0.0100223 0.535696 0.218773 0.998626 0.0253487 0.0458735
0.00887319 0.505563 0.278903 -0.661052 -0.569172 0.488931
0.0139825 0.526568 0.295705 -0.750843 -0.450171 0.483303
0.0196935 0.548745 0.317757 0.534679 0.431955 -0.726315
0.00956259 0.571067 0.0641098 -0.998543 -0.0452616 -0.029377
0.0099647 0.539386 0.152673 0.996997 0.0773286 -0.00409501
0.00881568 0.522341 0.181378 -0.998445 0.0409861 0.0377938
0.00988065 0.508654 0.232001 0.999918 0.0121127 -0.0041669
0.0128781 0.506708 0.278682 -0.589039 -0.583358 0.55922
0.0169826 0.521872 0.295902 -0.534221 -0.395116 0.747323
0.0188783 0.530348 0.300002 -0.668078 -0.586255 0.458232
0.00921026 0.530576 0.107768 -0.997351 0.0293837 -0.0665393
0.00838857 0.521638 0.120539 -0.999876 -0.0143864 -0.00637706
0.0088721 0.522319 0.125513 -0.999292 -0.0263471 0.0268525
0.00916929 0.507866 0.169132 0.999622 -0.0225953 -0.0156674
0.00941938 0.499654 0.195064 -0.999502 0.0263336 0.0173848
0.0100607 0.4885 0.234546 -0.994372 -0.0715584 0.0781228
0.00998145 0.482774 0.249044 -0.970544 -0.195326 0.141037
0.00899955 0.524817 0.0612301 -0.998162 0.0219505 0.0564817
0.00918398 0.51953 0.0789006 -0.999668 0.0162953 -0.0199577
0.00944695 0.506779 0.118902 -0.999247 -0.0386994 -0.00277338
0.00888787 0.499739 0.130851 -0.998242 -0.0372377 0.0461026
0.00852446 0.484513 0.168868 0.999746 -0.0178162 0.0138342
0.00970792 0.466392 0.237367 0.877917 0.475748 -0.0540816
0.0145633 0.482127 0.262545 0.257682 0.685008 -0.681442
0.0210456 0.506143 0.287616 0.398719 0.705064 -0.586436
0.0238621 0.517466 0.295988 0.379091 0.637405 -0.670824
0.0311498 0.545102 0.322369 0.0496913 0.724596 -0.687381
0.0098587 0.498457 0.0900564 -0.999653 0.025482 -0.00660895
0.00887417 0.470895 0.157134 -0.998545 0.0459509 0.0282368
0.00892343 0.465933 0.172531 0.999885 0.00737529 0.0132738
0.0103573 0.470148 0.181094 -0.99996 -0.00168645 0.00881116
0.015249 0.471072 0.2501 -0.848363 -0.437388 0.298282
0.0367802 0.553509 0.322052 0.00718329 -0.110563 0.993843
0.00806397 0.48763 0.035674 -0.999898 0.0125881 -0.00669129
0.00996805 0.471909 0.112563 -0.999378 0.0349947 -0.00439297
0.00889359 0.454142 0.151218 0.999677 -0.0177456 -0.0181965
0.00875322 0.445196 0.176673 -0.99904 0.0201144 0.0389188
0.008766 0.443656 0.181605 -0.997094 0.0119307 -0.0752384
0.00968493 0.446839 0.185541 -0.998122 0.014973 -0.0594001
0.0100504 0.4378 0.218846 0.769432 0.0792117 -0.633798
0.0345594 0.529017 0.304365 -0.0864093 -0.666881 0.740137
0.00939506 0.463884 0.0694466 0.998272 0.056304 0.0168224
0.00996733 0.435479 0.169282 0.999852 -0.00113273 0.017154
0.00921361 0.430092 0.175067 -0.999748 0.00640753 -0.021539
0.00920985 0.419655 0.208486 -0.985806 -0.0883437 0.142762
0.0193728 0.458838 0.237801 -0.709995 -0.247662 0.65922
0.0336345 0.512817 0.282173 -0.340132 -0.741996 0.577713
0.00882511 0.443791 0.0658022 -0.997082 0.043635 -0.0626403
0.00993394 0.413938 0.182793 -0.999403 0.0177977 -0.0295976
0.0088182 0.402795 0.202656 -0.991515 -0.0358513 0.124954
0.00865469 0.399253 0.211945 -0.952807 -0.145513 0.26643
0.0126398 0.414753 0.222184 -0.864459 -0.118553 0.488523
0.0164663 0.432115 0.223735 0.77062 0.0448317 -0.635716
0.0314641 0.489413 0.265731 0.0274169 0.738889 -0.673269
0.0391402 0.517618 0.290968 -0.0841662 -0.67188 0.735863
0.0455192 0.540748 0.312976 0.00733295 -0.668589 0.743596
0.0492742 0.554165 0.326594 0.0368038 -0.644654 0.763588
0.00765629 0.393372 0.160599 -0.999623 0.0185979 -0.0201971
0.00822712 0.393444 0.169419 -0.999817 0.00875472 -0.0169832
0.00912791 0.392467 0.187134 0.999986 0.00227592 -0.0048897
0.00859553 0.384643 0.205904 -0.965498 -0.0633816 0.25258
0.0374721 0.49827 0.269311 0.0657603 0.72713 -0.683343
0.0389961 0.502694 0.278132 -0.0506315 -0.763009 0.644402
0.0398206 0.505194 0.282533 0.0043364 -0.745092 0.666948
0.0400201 0.504774 0.287161 0.00821318 -0.730349 0.683024
0.0425868 0.515386 0.291016 -0.025828 -0.664586 0.746766
0.0528981 0.553608 0.321847 -0.0482803 0.256521 -0.965332
0.00903067 0.392197 0.129138 -0.999022 0.0363365 -0.0252118
0.00785397 0.377229 0.16431 0.999739 0.0182242 0.0137642
0.00911225 0.380702 0.172143 -0.999627 -0.0196123 -0.019018
0.00950065 0.376247 0.194602 0.99697 0.00351128 -0.0777097
0.0161626 0.397814 0.224533 0.861895 0.0585723 -0.503693
0.0286531 0.449894 0.238433 0.612638 0.326307 -0.71986
0.0321689 0.464953 0.240898 0.547215 0.234638 -0.803431
0.0390306 0.490194 0.260753 0.0647936 0.735379 -0.674551
0.0452084 0.510717 0.286611 0.00612911 -0.726831 0.686789
0.0540946 0.543292 0.312735 0.0593069 -0.647904 0.759409
0.0106809 0.386826 0.116685 -0.999396 0.026241 -0.0227815
0.00914564 0.378182 0.12388 0.999663 0.0258101 -0.00293403
0.0102427 0.379553 0.1369 -0.999748 -0.0140812 -0.0175155
0.0423186 0.487567 0.260872 -0.0838824 0.754323 -0.651123
0.0495957 0.512774 0.286345 -0.0365727 0.715654 -0.697497
0.0094586 0.391868 0.0145085 -0.980071 -0.152966 -0.126742
0.00903284 0.385614 0.0319208 -0.998354 -0.0223822 -0.0528095
0.00934667 0.385751 0.0367077 0.994235 0.0721587 0.0793154
0.00896224 0.382533 0.0428616 -0.998539 -0.051694 -0.0157366
0.0100782 0.37854 0.077523 -0.998521 -0.0225663 -0.0494713
0.0091141 0.371384 0.0893537 -0.999254 0.0122577 -0.0366152
0.00946963 0.363086 0.128076 -0.999259 -0.0385013 0.000108494
0.00947633 0.350232 0.178822 0.999838 0.00131293 0.0179286
0.0448592 0.482874 0.25662 0.244045 0.583056 -0.774911
0.0544385 0.516688 0.285942 0.0136543 0.706956 -0.707126
0.0609962 0.538108 0.312822 0.0503721 -0.658327 0.751045
0.00898342 0.365306 0.0493775 -0.997467 0.0459767 0.0542747
0.00926128 0.355492 0.0945114 -0.998342 0.0571303 0.00701949
0.0100423 0.352024 0.122313 -0.99728 -0.00167187 0.0736885
0.0105857 0.353357 0.126272 -0.995487 -0.0143704 0.0937989
0.0105169 0.351893 0.13109 -0.99675 -0.00429995 0.0804449
0.0100532 0.347507 0.141059 -0.99949 -0.0302284 0.0103195
0.0087274 0.334893 0.169852 -0.996544 0.053486 -0.0635636
0.00916337 0.331553 0.191138 0.99857 0.0509297 -0.0162536
0.0144629 0.345825 0.224521 -0.882499 0.0951131 0.460597
0.0354634 0.42959 0.245031 -0.697901 0.0188716 0.715946
0.0508809 0.491064 0.26018 0.386424 0.565155 -0.728887
0.0516847 0.493391 0.264572 -0.278057 -0.629396 0.725634
0.0541492 0.500588 0.277795 0.17108 0.688268 -0.704996
0.0674345 0.547166 0.317117 -0.0840205 0.629873 -0.772141
0.00844557 0.334769 0.105778 0.999956 0.00277501 -0.00899212
0.00934966 0.324956 0.163891 0.99392 -0.079865 0.075795
0.00974023 0.315759 0.21024 -0.970768 -0.0642749 0.231253
0.0719475 0.546696 0.326539 -0.104431 0.617326 -0.779746
0.00860681 0.334438 0.0473677 -0.999525 -0.0141272 0.0273963
0.00965303 0.331367 0.0801477 0.998545 -0.0175566 0.0509798
0.00983989 0.326845 0.103765 0.99998 0.00593869 -0.00214455
0.0312055 0.382816 0.242633 0.706488 0.0145191 -0.707577
0.0699634 0.528099 0.298965 -0.0114363 0.63735 -0.770489
0.0761143 0.549138 0.316923 0.0475705 -0.606643 0.79355
0.00879939 0.3274 0.0177205 0.999985 0.00406135 0.00364962
0.00807128 0.310398 0.0834709 0.999915 -0.0123729 0.00409046
0.0100827 0.317151 0.0895117 0.999473 0.0323988 0.0021918
0.00934883 0.309968 0.109332 0.99978 0.0134995 -0.0160695
0.00867314 0.303172 0.128431 -0.99978 0.0191602 0.00852898
0.00879656 0.301804 0.137118 -0.999242 0.0389316 -0.000376237
0.00987674 0.305497 0.140051 -0.999812 0.0162259 -0.0106607
0.00825943 0.294866 0.159468 -0.999573 -0.00458145 -0.0288763
0.0280395 0.357153 0.238099 0.725579 -0.0122605 -0.68803
0.0349527 0.382997 0.246571 -0.704306 -0.0135226 0.709767
0.0671743 0.50437 0.281748 0.15302 0.624485 -0.7659
0.0758962 0.53466 0.30324 -0.0137611 -0.634667 0.772663
0.0750925 0.530385 0.308184 -0.00437939 -0.634747 0.772707
0.0819616 0.553995 0.326254 0.0703251 -0.553623 0.829793
0.00878012 0.30288 0.0686544 -0.999794 0.00954059 0.0179128
0.00951709 0.300271 0.0954866 -0.999615 -0.00156628 0.0277192
0.00854204 0.292401 0.115168 -0.998486 0.0505363 0.0217349
0.0102283 0.292327 0.147834 0.999864 -0.0157938 -0.00476845
0.0291355 0.347862 0.239351 -0.708135 0.0240897 0.705666
0.0515052 0.43122 0.261588 0.730964 0.020351 -0.682112
0.0568051 0.450674 0.268297 0.713252 0.0253543 -0.700449
0.0752186 0.518605 0.289941 0.114862 0.59837 -0.792944
0.0739928 0.512745 0.295023 0.383172 0.333437 -0.861394
0.00850715 0.296005 0.0315576 0.999298 0.00538147 0.0370794
0.00877368 0.290517 0.0647476 0.999328 0.034627 0.0120435
0.00844423 0.283688 0.0930476 0.999984 0.0021808 0.00520048
0.0101673 0.278842 0.151623 0.99961 -0.0126205 -0.0249148
0.0652274 0.467165 0.275507 -0.681496 0.0103069 0.731749
0.087911 0.547605 0.312008 0.0545197 -0.594073 0.802562
0.0103534 0.294184 0.0093436 -0.998071 -0.00339274 -0.0619925
0.00899553 0.277677 0.0697994 0.999596 0.0171066 -0.0226817
0.00933183 0.278203 0.0737998 -0.999891 -0.0147671 -0.000782458
0.0084331 0.271941 0.0889763 -0.9994 0.00480083 -0.0343152
0.00864515 0.269481 0.106362 -0.997867 0.0364801 -0.0541447
0.00768999 0.261544 0.12932 -0.998493 -0.00726424 0.0543974
0.00859393 0.262063 0.144824 -0.999825 -0.017084 0.0076526
0.00976197 0.254788 0.207176 0.889828 -0.054368 -0.453045
0.00920985 0.251885 0.211475 -0.865379 0.0539737 0.498203
0.0555353 0.418106 0.262748 0.719388 0.00830723 -0.694558
0.0902492 0.541489 0.307418 -0.0445971 0.58724 -0.808184
0.00878197 0.268491 0.0479036 -0.999178 -0.0152985 0.0375462
0.0106225 0.267771 0.0901819 0.999131 -0.00232028 0.0416192
0.00964582 0.255385 0.138879 0.997813 -0.00452939 -0.0659522
0.0086888 0.25011 0.148366 0.999344 0.035604 -0.00660419
0.0120356 0.249277 0.222585 0.827194 -0.0373355 -0.560675
0.0153765 0.261553 0.223657 0.870222 -0.0359299 -0.491348
0.0454709 0.368037 0.256093 0.684086 0.000776804 -0.729401
0.0711528 0.459514 0.280407 0.682961 0.0160226 -0.730279
0.0778896 0.483379 0.287515 0.584392 0.176442 -0.792057
0.00886669 0.253415 0.0669966 -0.999425 -0.00565378 0.0334425
0.0129704 0.242192 0.220285 -0.841443 0.0198601 0.539981
0.0562244 0.393207 0.265252 0.689152 -0.0281411 -0.72407
0.0961603 0.532478 0.307701 0.075433 0.627673 -0.774814
0.00855461 0.240459 0.0683233 -0.997357 0.0194002 0.0700262
0.0101746 0.234329 0.141507 -0.998811 -0.0446759 0.0195246
0.00811895 0.217726 0.197623 -0.996061 -0.0117285 0.0878932
0.00858151 0.218274 0.20448 -0.989727 -0.0295137 0.139892
0.021176 0.259412 0.230869 0.812537 -0.0207577 -0.582541
0.0408688 0.327458 0.249385 0.677163 -0.046329 -0.734373
0.0630131 0.403619 0.272378 0.715474 0.000536058 -0.698639
0.101231 0.535027 0.312275 0.0963226 0.527411 -0.844133
0.00901021 0.237846 0.0233703 -0.999189 -0.0106623 0.0388178
0.00944144 0.238797 0.0270819 -0.999466 -0.0197284 0.0260423
0.00892657 0.234672 0.0418005 -0.999281 -0.0039385 0.0377187
0.0103695 0.236057 0.0657567 -0.997413 0.00263816 0.0718307
0.0105664 0.231446 0.0997777 -0.996769 -0.0429259 0.0678867
0.00962603 0.220925 0.145795 -0.999816 -0.0108783 -0.0158003
0.0100999 0.218488 0.172192 0.999807 -0.00781148 0.0180278
0.00943417 0.214835 0.180453 -0.999132 0.0122549 -0.039806
0.0103015 0.215746 0.194345 0.998555 -0.0195497 -0.0500629
0.0214708 0.250012 0.228889 0.804409 -0.0526681 -0.591737
0.0222252 0.2522 0.232038 0.804409 -0.0526682 -0.591737
0.0479159 0.339157 0.259341 -0.733453 -0.00344466 0.679732
0.0515989 0.351868 0.261683 -0.715477 -0.00881732 0.698581
0.0917828 0.488476 0.300574 0.591749 0.267072 -0.760596
0.0107213 0.213461 0.151678 0.999497 -0.0126218 0.0290993
0.0110721 0.209161 0.188837 -0.999762 0.0149505 -0.0159071
0.0091812 0.199088 0.212148 -0.987679 0.0641919 0.142719
0.0133768 0.212185 0.22265 -0.898235 0.00205184 0.43951
0.0204729 0.235657 0.23152 0.739839 -0.0119712 -0.672677
0.050943 0.337975 0.259328 0.729277 0.000947391 -0.684218
0.0966287 0.490804 0.304931 0.585969 0.275248 -0.762155
0.00820867 0.21096 0.0366887 0.999433 0.0301259 -0.0150535
0.00826958 0.202805 0.0957731 0.999957 0.00785737 0.00501791
0.0085762 0.196166 0.150125 -0.999237 0.00839168 -0.0381549
0.00883253 0.195503 0.161034 -0.999 0.0267592 -0.0358332
0.00975409 0.197256 0.171034 -0.99904 0.03936 -0.0192321
0.00875043 0.192611 0.179465 -0.999746 0.0184448 -0.0129504
0.0084652 0.186122 0.218385 0.917698 0.0194337 -0.396803
0.0446125 0.305095 0.255921 -0.716193 -0.000557147 0.697903
