ply
format ascii 1.0
comment Aron generated
element vertex 843
property float x
property float y
property float z
property float nx
property float ny
property float nz
end_header
-0.836172 -0.992137 1.58247 -0.0606009 -0.998153 0.00429372
-0.872414 -1.06359 1.67478 -0.0336197 0.999259 0.0187306
-0.797007 -0.922553 1.55926 -0.0329521 -0.995422 0.0897167
-0.841938 -1.01037 1.66607 0.00877049 0.999903 -0.0107895
-0.826749 -0.983939 1.66261 -0.0418676 -0.998816 0.0247741
-0.812385 -0.959119 1.66112 0.0671756 0.996802 -0.0432747
-0.836025 -1.00623 1.72643 -0.0147185 -0.999867 0.007073
-0.827572 -0.992583 1.73515 -0.021087 -0.999361 0.0288463
-0.799257 -0.941474 1.71034 -0.0769496 -0.995974 0.0459802
-0.828455 -0.998862 1.78294 0.0239651 -0.99969 -0.00667954
-0.844662 -1.03164 1.83251 0.0460568 -0.996863 -0.0643641
-0.806059 -0.961288 1.79192 0.0322315 -0.999457 0.00677276
-0.848833 -1.04389 1.88349 -0.0197799 0.995103 0.0968459
-0.828757 -1.0084 1.87347 0.0372899 -0.991109 -0.12772
-0.837199 -1.02641 1.90865 0.00983042 0.990409 0.137813
-0.812801 -0.982919 1.89276 -0.0305105 0.983316 0.179331
-0.829082 -1.01553 1.93941 -0.0213905 -0.979842 -0.198624
-0.837363 -1.03313 1.97321 -0.0536326 -0.956396 -0.287107
-0.816748 -0.996791 1.96393 0.00591201 0.955619 0.294545
-0.780209 -0.930871 1.93224 0.00820473 -0.9625 -0.271159
0.333559 1.05919 1.15968 -0.231077 0.90407 0.359528
0.309506 1.01153 1.22332 -0.0410561 0.980896 0.190153
0.308148 1.00528 1.26262 0.0658528 0.997694 0.0164131
0.280042 0.950447 1.32841 -0.049004 0.994325 0.0944233
0.3247 1.02787 1.32117 0.0932415 0.99234 0.0810391
0.265503 0.916766 1.41579 0.0555506 -0.990074 0.129104
0.303594 0.982219 1.41552 -0.0646692 -0.997824 0.0128256
0.321919 1.01178 1.43475 -0.0939614 -0.993178 0.0690509
0.306041 0.97943 1.48569 0.119711 0.991088 -0.0584247
0.321906 1.00453 1.50724 -0.0495255 -0.992413 0.112532
0.329346 1.0144 1.53649 -0.10335 -0.993937 0.0375293
0.301195 0.960057 1.59655 -0.166318 -0.986055 0.00585234
0.334548 1.01669 1.60313 -0.0931641 -0.995202 0.029877
0.282674 0.91977 1.68159 -0.196206 -0.958831 -0.205294
0.336601 1.01339 1.67162 -0.0971844 -0.99382 -0.05364
0.339042 1.01432 1.70438 -0.0548114 -0.99796 -0.0327246
0.298375 0.937847 1.7708 -0.104418 -0.99374 0.0397227
0.335363 1.00087 1.77595 -0.0321406 0.998217 0.05029
0.315915 0.962622 1.82452 -0.00772952 0.999107 0.0415435
0.338447 0.999653 1.84127 0.0648763 0.994842 0.0779734
0.350226 1.0174 1.86624 0.00626518 0.999958 -0.00668632
0.317417 0.955404 1.92283 -0.00159528 -0.999538 0.0303603
0.354015 1.01753 1.9302 0.0678349 0.993593 0.0903943
0.341408 0.991741 1.9717 -0.0472621 -0.997969 -0.0427063
0.342643 0.990701 2.00343 -0.00746689 0.390169 -0.920713
-0.845621 -0.99315 1.1464 -0.178383 -0.959216 -0.21928
-0.878323 -1.05868 1.25135 -0.0894171 -0.986991 -0.133616
-0.853288 -1.01324 1.22099 -0.0697875 -0.992839 -0.0969544
-0.84959 -1.00879 1.24039 -0.0766262 -0.994121 -0.0764955
-0.853632 -1.01914 1.2771 -0.0113177 -0.998373 -0.0558906
-0.842718 -1.00087 1.28014 -0.0244074 -0.998603 -0.046876
-0.862089 -1.04041 1.34985 0.0105507 0.999867 -0.012425
-0.846412 -1.01305 1.34242 -0.00379771 -0.999907 0.0131283
-0.834244 -0.992423 1.34309 -0.0151972 -0.999847 0.00861925
-0.82588 -0.979063 1.35219 -0.0385927 -0.999087 0.0183136
-0.85063 -1.02854 1.43037 0.0540908 0.998142 -0.0280468
-0.842021 -1.01467 1.43845 0.0571638 0.998134 -0.0214567
-0.85186 -1.03572 1.48414 -0.047613 -0.998855 0.00470077
-0.835735 -1.00764 1.47713 0.068692 0.99698 -0.0362132
-0.824321 -0.98851 1.48001 0.067394 0.997486 -0.0219256
-0.831016 -1.00354 1.51853 -0.0598945 -0.997968 0.0217262
-0.818319 -0.982013 1.51918 -0.0555608 -0.998425 0.00775296
-0.834865 -1.0155 1.57573 0.0479095 0.998807 0.00948802
-0.829347 -1.00746 1.5899 -0.0675885 -0.997486 0.0213018
-0.846449 -1.04183 1.64591 -0.0550374 -0.998086 0.0282141
-0.824016 -1.00207 1.62877 0.0924019 0.995593 -0.0160262
-0.807482 -0.973426 1.62312 -0.0702543 -0.997455 -0.0121394
-0.833548 -1.02442 1.69365 0.0374003 0.999193 -0.0146187
-0.795735 -0.956081 1.65088 0.0958303 0.994477 -0.0427917
-0.815764 -0.995689 1.70957 -0.0442942 -0.998507 0.0319714
-0.787751 -0.945763 1.68528 0.0829342 0.995963 -0.0343442
-0.821399 -1.01058 1.76566 0.00729844 -0.999893 0.0127118
-0.836914 -1.04155 1.81423 0.0483483 -0.998173 -0.0362492
-0.823379 -1.01856 1.81443 0.0207705 -0.999412 -0.027274
-0.785652 -0.950788 1.77608 -0.040975 -0.998717 0.0297568
-0.803078 -0.985218 1.82683 0.0388173 -0.998876 -0.027195
-0.788812 -0.960976 1.82696 0.0142782 -0.998956 -0.043399
-0.811722 -1.00541 1.88493 0.029544 -0.985278 -0.168387
-0.783958 -0.956282 1.86457 0.0126347 -0.995198 -0.0970616
-0.826158 -1.03613 1.95019 -0.0171585 -0.984148 -0.176516
-0.816659 -1.02066 1.95735 -0.0167911 -0.974739 -0.222716
-0.783643 -0.961982 1.93046 0.014061 -0.960721 -0.277159
-0.829877 -1.04893 2.0186 -0.0499788 -0.91905 -0.390959
-0.815228 -1.02401 2.01846 -0.0590554 -0.886369 -0.459198
0.339224 1.01503 1.21306 -0.0422299 0.984939 0.167665
0.333328 1.00084 1.25703 0.0998825 0.994848 0.0173343
0.330512 0.99223 1.29744 0.100435 0.992894 0.0638389
0.335467 0.997586 1.32986 0.0303395 0.994447 0.100773
0.325446 0.976131 1.37653 0.0247714 0.999322 0.0272478
0.342224 1.00269 1.39732 0.0645394 0.997892 0.00679377
0.331923 0.980809 1.44346 0.0597515 0.997705 -0.0318465
0.344942 1.00064 1.46778 -0.0225656 -0.994311 0.104101
0.344817 0.997002 1.50398 0.0755672 0.995363 -0.0595185
0.34203 0.988643 1.54224 -0.106087 -0.993413 0.043324
0.408419 1.10356 1.52071 -0.0934551 -0.99055 -0.10038
0.343608 0.984759 1.61163 0.140698 0.989202 0.0410223
0.354133 1.00016 1.63793 0.0850377 0.996279 0.0140466
0.347986 0.985939 1.6778 -0.0655496 -0.996526 -0.0513807
0.382053 1.04315 1.68529 0.0333246 0.999391 0.0103538
0.412107 1.09317 1.69673 -0.0992411 0.994263 -0.0398918
0.317116 0.921491 1.80419 0.0450743 0.998374 0.0349041
0.378988 1.02791 1.79128 0.0367261 -0.999247 -0.012519
0.342219 0.95963 1.85218 0.0736523 0.996812 0.0306915
0.388285 1.03793 1.8524 -0.00446038 0.996343 0.0853232
0.360447 0.985569 1.90556 -0.0946463 -0.995291 0.0209175
0.346545 0.957909 1.94807 0.0261014 -0.994319 0.103187
0.356882 0.97306 1.97369 -0.0888895 -0.988628 -0.121301
0.414426 1.07139 1.96844 -0.0766945 0.980863 0.178957
-0.836257 -1.00569 1.15149 -0.186065 -0.960922 -0.204962
-0.853002 -1.03988 1.21852 -0.0964104 -0.984172 -0.148697
-0.843302 -1.02405 1.22406 -0.0894809 -0.988399 -0.122723
-0.876355 -1.08883 1.32606 -0.0362786 -0.999264 -0.0124496
-0.816466 -0.978476 1.21946 -0.0725731 -0.997195 -0.0183315
-0.838919 -1.02318 1.29656 -0.00851245 -0.999442 -0.0323118
-0.805486 -0.962836 1.25112 -0.0339235 -0.999393 0.00795833
-0.813936 -0.981154 1.29679 -0.0172908 -0.999788 -0.0111404
-0.80135 -0.960023 1.29734 0.0318318 0.999393 0.0141802
-0.824155 -1.00511 1.37205 -0.0369482 -0.999011 0.0247464
-0.833071 -1.02412 1.41672 0.0529726 0.998526 -0.0118335
-0.816539 -0.995599 1.40898 0.0308971 0.999497 0.00715253
-0.828689 -1.02057 1.45936 0.0701677 0.997383 -0.0174278
-0.820432 -1.00749 1.46848 0.0367858 0.998091 -0.0496109
-0.809153 -0.988813 1.47189 0.0453366 0.998899 -0.0120892
-0.831229 -1.03207 1.53992 -0.0506943 -0.998644 -0.0118383
-0.820553 -1.01449 1.54429 -0.0590094 -0.998242 -0.00555365
-0.802705 -0.983667 1.53552 0.0496819 0.998534 -0.0215052
-0.802418 -0.985374 1.55992 -0.0536233 -0.998419 0.016853
-0.827014 -1.03302 1.6296 0.0359637 0.998911 -0.0297328
-0.790339 -0.967505 1.58734 -0.0794901 -0.996732 0.0144028
-0.814241 -1.01375 1.65443 0.0641558 0.997043 -0.0422962
-0.829873 -1.04465 1.70563 -0.000343858 -0.999731 0.023193
-0.806493 -1.00375 1.68832 0.0341239 0.999312 -0.0145528
-0.803079 -0.999592 1.70601 -0.0332086 -0.999158 0.024096
-0.796913 -0.990379 1.719 0.0207146 0.999305 -0.0309815
-0.788601 -0.977244 1.72851 0.0207467 0.99833 -0.0539108
-0.819616 -1.03609 1.80266 0.00314887 -0.999749 0.0221982
-0.793064 -0.989564 1.78212 -0.0284109 -0.999505 0.0135134
-0.838389 -1.07437 1.87718 -0.000339553 0.998932 0.0462083
-0.772072 -0.955345 1.79451 -0.0316271 -0.998236 0.0502516
-0.759324 -0.934168 1.79761 0.0639243 0.994915 -0.0778366
-0.791337 -0.994493 1.86947 -0.000483704 -0.994792 -0.101927
-0.806651 -1.02431 1.91459 -0.0141162 0.985617 0.168405
-0.797189 -1.00906 1.92207 -0.0175262 0.977766 0.208964
-0.793249 -1.00384 1.93785 0.0229489 -0.975463 -0.218964
-0.801306 -1.02037 1.97091 -0.0172853 -0.940483 -0.339401
-0.803534 -1.0263 1.99518 0.0116592 0.916786 0.399208
-0.803552 -1.0282 2.01607 0.011764 0.873851 0.486051
0.328027 0.942108 1.28212 -0.0762505 0.975782 0.205026
0.347129 0.972617 1.30039 0.0655886 0.99481 0.0777859
0.34303 0.962033 1.34149 0.0460482 0.99085 0.126872
0.356632 0.982785 1.36534 -0.0178098 0.998963 0.0419111
0.358262 0.98237 1.40055 0.0445125 0.999009 -0.000267824
0.335687 0.939246 1.45773 -0.0968695 -0.995237 -0.0109722
0.411574 1.06988 1.42521 -0.036269 0.999143 -0.0199659
0.366998 0.988024 1.50143 -0.138449 -0.990187 0.0190103
0.376713 1.00192 1.5288 -0.170177 -0.98508 0.0256384
0.329045 0.91485 1.60506 -0.111986 -0.992617 -0.0465811
0.373573 0.990019 1.60253 -0.109213 -0.993718 0.0244325
0.397138 1.02826 1.61834 0.0509985 0.994683 -0.0894674
0.39692 1.02472 1.65373 0.0218122 -0.99782 0.0622893
0.339512 0.920911 1.73389 0.0253663 -0.99817 0.0548954
0.385849 0.999073 1.73193 0.0307177 -0.999452 -0.0123157
0.380346 0.986363 1.77037 0.0619277 -0.997955 0.0158558
0.370127 0.965442 1.81187 0.0566564 0.994879 0.083701
0.375494 0.971815 1.84151 -0.0563533 -0.996517 -0.0614675
0.32359 0.878161 1.91172 0.109144 -0.975535 0.19084
0.388515 0.988576 1.89897 0.0331611 0.998973 0.0308902
0.412488 1.02742 1.91576 -0.0206083 -0.990663 -0.13477
0.380114 0.968021 1.97048 -0.00465579 -0.999909 -0.0126698
0.429976 1.05193 1.97057 0.0502746 -0.97441 -0.219084
-0.833055 -1.02956 1.17068 -0.144435 -0.980006 -0.136843
-0.799515 -0.969573 1.12223 -0.152546 -0.947082 -0.282426
-0.838295 -1.04403 1.23827 -0.0832095 -0.991335 -0.101644
-0.811036 -0.995789 1.205 -0.110062 -0.992449 -0.0541473
-0.820124 -1.01498 1.25278 -0.0395874 -0.99873 -0.0311623
-0.811279 -1.00094 1.26091 -0.048727 -0.99871 -0.0143159
-0.826592 -1.03155 1.32098 -0.00924634 -0.99988 -0.0124388
-0.808536 -1.00048 1.30943 0.00352041 -0.99989 -0.0144074
-0.825656 -1.03431 1.37199 0.026209 0.999528 -0.0160328
-0.780745 -0.953856 1.30559 -0.00218367 -0.999878 -0.01545
-0.784647 -0.963325 1.34058 -0.0298266 -0.999011 0.0329748
-0.769338 -0.937477 1.33655 0.0112006 -0.999925 0.0049679
-0.82262 -1.03749 1.46902 0.038694 0.999071 -0.0189956
-0.830552 -1.05416 1.50977 -0.0386086 -0.998977 -0.0235556
-0.810421 -1.01943 1.49569 -0.0651814 -0.997871 -0.00218389
-0.81274 -1.02579 1.52518 0.0319241 0.999419 0.01196
-0.775866 -0.960573 1.48059 0.0119663 -0.999923 -0.00326824
-0.78542 -0.980155 1.52379 -0.00459701 -0.999605 0.0277372
-0.797557 -1.00438 1.57103 -0.0437558 -0.999042 0.000119261
-0.759736 -0.937647 1.52712 -0.0318009 0.998444 -0.0458127
-0.80916 -1.02961 1.64047 0.054678 0.998161 -0.026161
-0.83251 -1.07401 1.70534 -0.00160845 -0.999971 0.00739636
-0.797748 -1.01293 1.66796 -0.0502645 -0.99707 0.0576625
-0.761722 -0.949668 1.62982 -0.026473 -0.999565 0.0129789
-0.78732 -0.998043 1.69732 -0.0298881 -0.9987 0.0413016
-0.779227 -0.985402 1.70725 0.0394035 0.998205 -0.0451113
-0.75721 -0.947633 1.69444 0.0930232 0.994441 -0.0493396
-0.776281 -0.98404 1.74907 0.033804 0.996406 -0.0776623
-0.763614 -0.963174 1.75186 0.0590448 0.996347 -0.0616996
-0.788314 -1.0096 1.81398 -0.0119031 -0.999929 0.000851098
-0.768219 -0.975362 1.8051 -0.0153302 -0.998943 0.0433393
-0.778856 -0.99639 1.84406 -0.00368139 -0.997712 -0.067501
-0.830632 -1.09118 1.94461 -0.0657713 -0.990066 -0.124274
-0.837366 -1.10503 1.97557 -0.0780788 -0.96084 -0.265878
-0.781216 -1.00622 1.91361 0.0115305 -0.980696 -0.195199
-0.771952 -0.991481 1.92179 0.0281018 -0.976628 -0.213093
-0.780408 -1.00843 1.95548 -0.000926077 -0.950884 -0.309547
-0.80072 -1.0465 2.00534 0.0134308 0.917376 0.397796
-0.721732 -0.907355 1.91642 -0.0589366 0.972611 0.224843
0.405912 1.02689 1.26211 -0.212553 0.916387 0.339199
0.370911 0.962521 1.33343 -0.102276 0.978423 0.17952
0.40368 1.01661 1.33939 -0.0883805 0.992501 0.0844434
0.393395 0.995518 1.38603 -0.103001 0.991796 0.0757039
0.376168 0.962377 1.43837 0.0408191 0.9984 -0.0391221
0.403905 1.00763 1.44972 0.00775209 0.998167 -0.0600147
0.418529 1.03 1.47319 0.0591762 0.998247 -0.00101234
0.389025 0.975614 1.53483 0.147385 0.989023 0.0105565
0.359743 0.92172 1.59506 -0.0514497 -0.997931 -0.038564
0.432561 1.0452 1.56955 0.0959835 0.995364 -0.00620981
0.395337 0.977595 1.63546 -0.0217186 0.998556 -0.0491368
0.427059 1.02963 1.64504 -0.0385662 -0.996673 0.0718039
0.434077 1.03882 1.67464 0.0312032 0.995966 -0.0841317
0.37658 0.936326 1.75354 -0.0199784 -0.998756 -0.0456939
0.427395 1.02135 1.74924 0.0356587 -0.998767 0.0345469
0.461217 1.0769 1.75873 0.0434479 0.997334 0.0586341
0.398038 0.96485 1.83874 -0.043961 0.998836 0.0198647
0.423425 1.00583 1.85425 0.00863131 -0.999378 -0.0341797
0.432868 1.01927 1.88127 0.032252 -0.984904 -0.170071
0.421361 0.996606 1.92245 0.0138663 0.999705 0.0199412
0.421735 0.994449 1.95522 -0.0158487 0.998992 -0.0419885
0.448117 1.03706 1.971 -0.0405925 -0.950956 -0.306653
-0.79125 -0.982221 1.10133 -0.185917 -0.936312 -0.297916
-0.798047 -0.99696 1.14541 -0.0910233 -0.980281 -0.175399
-0.793224 -0.990411 1.16297 -0.0542152 -0.995019 -0.0836505
-0.819521 -1.04066 1.24893 -0.0339882 -0.998204 -0.0493411
-0.80175 -1.01044 1.23752 -0.0212937 -0.999183 -0.0343521
-0.842858 -1.08748 1.35302 -0.0392281 -0.998202 0.0453313
-0.819289 -1.0467 1.32915 0.00319728 -0.999881 0.0150692
-0.788128 -0.992205 1.29041 -0.0300871 -0.999507 -0.00898516
-0.769642 -0.96082 1.27923 -0.0159348 -0.999859 -0.00538025
-0.802478 -1.02251 1.37333 0.0360441 0.999302 -0.00980238
-0.821597 -1.05921 1.43788 0.0491451 0.998775 -0.00581734
-0.793581 -1.01058 1.4076 -0.0295829 -0.999559 0.00267854
-0.768664 -0.967638 1.38457 0.0238777 0.999386 -0.0256496
-0.78743 -1.00359 1.44711 -0.0308406 -0.998633 0.0422028
-0.7822 -0.996209 1.46263 -0.0197024 -0.999797 -0.00426687
-0.779486 -0.993356 1.48292 -0.0102094 -0.999891 -0.0106485
-0.794892 -1.02308 1.53684 -0.0150079 -0.999629 0.0227357
-0.782517 -1.00282 1.53874 -0.025538 -0.999594 0.012626
-0.751773 -0.949633 1.50771 0.0337427 -0.998701 0.0381921
-0.766953 -0.978863 1.56009 -0.00522896 -0.999986 0.000219733
-0.81 -1.05792 1.66073 -0.0248266 -0.999682 0.00448887
-0.768224 -0.985062 1.61136 0.00852646 0.999686 0.0235831
-0.798281 -1.0407 1.6872 -0.00652099 -0.99975 0.0214071
-0.764775 -0.982756 1.65364 0.0553097 0.996953 -0.0550067
-0.76083 -0.977628 1.67086 0.0574155 0.99746 -0.0421491
-0.780275 -1.01416 1.72666 0.0302835 0.998306 -0.049677
-0.785607 -1.0255 1.7584 -0.01967 -0.997678 0.0652088
-0.812241 -1.07467 1.82392 0.0238902 -0.998518 -0.0488965
-0.774931 -1.01016 1.78678 -0.00399075 -0.999992 -7.33137e-06
-0.753052 -0.973148 1.77519 0.0596205 0.997229 -0.0444881
-0.741428 -0.954373 1.78015 0.0631249 0.995469 -0.0711159
-0.768964 -1.00497 1.84489 0.00818941 -0.997251 -0.0736444
-0.775728 -1.01871 1.87716 -0.00225328 -0.991798 -0.127794
-0.789122 -1.04413 1.91875 0.000292803 -0.987706 -0.15632
-0.740886 -0.960659 1.86987 -0.00931798 0.993798 0.110805
-0.810578 -1.08538 1.99204 -0.0491279 -0.953968 -0.295856
-0.765366 -1.00734 1.94864 0.0231968 -0.961765 -0.272893
-0.72843 -0.944002 1.91844 -0.0138408 -0.977074 -0.212452
-0.734228 -0.955953 1.94828 -0.0228824 -0.963129 -0.268064
0.416427 0.993069 1.30873 -0.155224 0.968495 0.194738
0.417137 0.991315 1.34528 -0.120952 0.98632 0.111998
0.423187 0.998782 1.37668 -0.158763 0.976993 0.142403
0.415309 0.982277 1.42055 -0.0069387 0.998251 0.0587178
0.400278 0.953511 1.47022 0.0874074 0.995898 0.0234005
0.392902 0.937962 1.51248 0.130255 0.99148 -0.00141618
0.420856 0.983137 1.52412 0.0693514 0.997494 0.014031
0.441052 1.01495 1.54288 -0.0332513 -0.998924 0.0323395
0.446012 1.02059 1.57452 -0.0596844 -0.993445 0.0974972
0.415602 0.965636 1.63453 -0.0888031 -0.995784 0.0230076
0.430363 0.98813 1.65767 0.0347598 0.997743 -0.0574573
0.400947 0.935008 1.71521 -0.0336303 0.996778 0.0728169
0.433857 0.988558 1.72432 -0.0210844 0.999628 -0.0173185
0.479294 1.06345 1.72487 0.120866 0.96919 -0.214621
0.43241 0.980613 1.79377 0.0112199 -0.996553 -0.0822013
0.48263 1.0636 1.79178 -0.0262144 -0.987128 -0.157771
0.439478 0.987274 1.85622 -0.0134176 0.998196 0.0585159
0.450414 1.00323 1.88218 -0.0669034 -0.98916 -0.130718
0.402767 0.919428 1.94738 -0.0318183 -0.9935 0.109293
0.442067 0.983708 1.95412 -0.0430732 -0.999062 0.00447432
0.443253 0.983104 1.98613 -0.0350979 -0.997507 0.0612202
-0.771085 -0.975669 1.08238 -0.205361 -0.926284 -0.315951
-0.737302 -0.917012 1.03597 -0.201111 -0.861719 -0.465827
-0.768475 -0.975302 1.1341 -0.0273439 -0.997051 -0.0717003
-0.789772 -1.0157 1.20878 -0.0347714 -0.998675 -0.0379319
-0.789184 -1.01672 1.23506 -0.0441701 -0.997916 -0.0470378
-0.758569 -0.963897 1.19746 -0.0205002 -0.99974 -0.0100332
-0.783538 -1.0107 1.27758 -0.029933 -0.999548 -0.00279822
-0.761645 -0.973572 1.25926 -0.0188469 0.999724 -0.0140154
-0.75091 -0.956445 1.26459 -0.0216416 0.999715 -0.0101177
-0.755916 -0.967431 1.30195 0.026279 -0.999255 0.0282647
-0.789565 -1.02944 1.39579 -0.0296104 -0.999504 0.0106821
-0.766736 -0.99073 1.37674 0.0185402 0.99973 -0.0140063
-0.790306 -1.03463 1.44858 0.0202156 0.999525 -0.0232754
-0.786653 -1.03004 1.46688 0.0269519 0.999343 -0.0242461
-0.76937 -1.00125 1.45938 0.00775863 -0.999898 0.0120066
-0.76326 -0.992327 1.47333 0.0251693 -0.999612 0.0119376
-0.757179 -0.983456 1.4874 0.0327894 -0.999126 0.0259084
-0.74351 -0.961163 1.48775 0.0185842 -0.998344 0.0544508
-0.808367 -1.07773 1.62938 -0.0352492 -0.9992 -0.0188798
-0.756541 -0.987968 1.56117 0.0180261 -0.999813 -0.00694442
-0.780115 -1.03141 1.62689 0.00210993 0.999961 0.00861856
-0.736872 -0.956977 1.57611 0.0284222 -0.999579 -0.00587935
-0.747498 -0.977538 1.61874 0.00384364 -0.999802 -0.0195276
-0.766313 -1.01245 1.67443 0.0711829 0.995584 -0.0612029
-0.72791 -0.946724 1.6343 -0.00790633 -0.998972 -0.0446382
-0.757728 -1.0009 1.70713 0.0643863 0.996899 -0.0452405
-0.78228 -1.04572 1.76995 2.2176e-05 -0.99861 0.0527031
-0.798355 -1.07559 1.81802 -0.00560703 -0.999815 -0.0183925
-0.730501 -0.958431 1.7336 0.0793554 0.993141 -0.0858692
-0.736377 -0.97046 1.76593 0.086975 0.995592 -0.0351129
-0.713721 -0.932591 1.7543 0.0784357 0.995639 -0.0505108
-0.745646 -0.990081 1.82552 -0.0455194 -0.998883 -0.012701
-0.773384 -1.04016 1.88899 0.00445339 -0.992211 -0.124493
-0.729439 -0.965184 1.84632 0.0209317 0.999036 0.0385937
-0.716343 -0.944058 1.84974 0.0240167 0.998825 0.0420889
-0.747831 -1.00053 1.91687 0.0175548 -0.98095 -0.193464
-0.758991 -1.02155 1.95407 0.0179332 -0.948454 -0.316407
-0.74678 -1.00194 1.95837 0.00520638 -0.942403 -0.334439
-0.78845 -1.07585 2.03629 0.0131586 0.91799 0.396385
-0.757023 -1.02288 2.01438 0.0216951 -0.866948 -0.497927
0.476903 1.04514 1.30819 0.443553 -0.849225 -0.286491
0.427275 0.957876 1.39087 -0.144147 0.976055 0.162905
0.467037 1.02273 1.3918 -0.291689 0.932562 0.21271
0.456519 1.00209 1.43785 -0.183635 0.976008 0.116991
0.431809 0.957399 1.49552 0.019787 0.995961 0.0875777
0.456519 0.996631 1.51035 -0.105792 0.993875 0.0319467
0.459094 0.998297 1.54407 -0.000436736 0.999973 -0.0073916
0.423501 0.935314 1.60867 0.118467 0.987869 -0.100402
0.448417 0.974875 1.6236 -0.0609136 -0.99237 0.107195
0.43597 0.951185 1.6683 -0.00143321 0.999233 0.039141
0.426427 0.932453 1.71012 0.00105441 -0.999469 -0.0325703
0.471834 1.0066 1.71009 0.041285 0.993324 -0.107715
0.479794 1.01744 1.73879 -0.0299653 0.999476 0.0122156
0.462845 0.986247 1.78545 0.0585673 -0.997493 -0.0397149
0.495627 1.03897 1.79622 -0.00300516 -0.994789 -0.101907
0.532003 1.09769 1.80522 -0.0766431 -0.993478 -0.0844214
0.433544 0.929297 1.90639 -0.0813613 -0.996667 -0.00594686
0.473217 0.993588 1.91289 -0.0434177 -0.998223 -0.0408209
0.475043 0.994165 1.94484 -0.0470696 -0.993674 0.101966
0.502459 1.03776 1.9604 -0.0545958 0.972603 -0.22597
-0.779043 -1.01949 1.1266 -0.135648 -0.96554 -0.222106
-0.770107 -1.00565 1.13511 -0.0687542 -0.987031 -0.145062
-0.787431 -1.03831 1.20099 -0.0565601 -0.99395 -0.0941542
-0.74955 -0.973253 1.14701 -0.0337573 -0.993893 -0.105061
-0.758534 -0.991115 1.19427 -0.0231675 -0.997713 -0.0635027
-0.750087 -0.978164 1.20425 -0.0152151 -0.999879 0.00326667
-0.788 -1.04695 1.3104 -0.0077834 -0.999895 0.0121891
-0.773189 -1.02273 1.30653 -0.024741 -0.999682 0.00495077
-0.763865 -1.00821 1.31425 0.0203529 -0.999776 0.00583062
-0.773608 -1.0272 1.36021 -0.0201218 -0.99968 0.0153345
-0.762285 -1.00916 1.36397 -0.00954061 -0.999941 -0.00515572
-0.78405 -1.04918 1.43237 0.0261122 0.999464 -0.019732
-0.750613 -0.99238 1.39352 0.00032355 0.999849 -0.0173498
-0.747408 -0.9886 1.41336 -0.00869565 0.999886 -0.0123246
-0.773877 -1.03671 1.48861 -0.0107583 -0.999673 0.0231959
-0.777148 -1.04418 1.51953 -0.0172255 -0.999811 -0.00900517
-0.746464 -0.99236 1.4882 -0.0362316 0.998997 -0.0263033
-0.73614 -0.976129 1.49472 -0.0383117 0.998446 -0.040465
-0.763586 -1.02571 1.56855 0.0236612 -0.999563 0.0177095
-0.740025 -0.986422 1.55152 -0.0589591 0.998076 -0.0191996
-0.710237 -0.936364 1.52459 0.0573349 -0.997075 0.0505455
-0.728211 -0.969355 1.5803 0.0529649 -0.998356 -0.0218919
-0.766368 -1.0373 1.66897 0.0336757 0.998051 -0.0525326
-0.727118 -0.970895 1.62711 -0.0198845 0.998767 0.0454947
-0.754264 -1.01962 1.69563 0.046187 0.997755 -0.0484881
-0.743741 -1.00304 1.70184 0.0409035 0.998262 -0.0424267
-0.749934 -1.0154 1.73496 0.0362263 0.995611 -0.0862882
-0.721087 -0.967174 1.71248 0.0674492 0.995251 -0.0701916
-0.738806 -0.999409 1.76333 0.0417201 0.997934 -0.0488519
-0.736078 -0.996312 1.78192 0.0865066 0.994819 -0.0534012
-0.741239 -1.0068 1.81234 0.0393873 0.999203 -0.00643042
-0.75523 -1.03247 1.85551 -0.000424723 -0.997384 -0.072286
-0.765378 -1.05147 1.89227 0.00737118 -0.992273 -0.123858
-0.739362 -1.00827 1.87608 0.0122517 -0.995804 -0.0906887
-0.723102 -0.981885 1.87469 -0.00583107 0.996751 0.0803381
-0.712865 -0.96587 1.88225 -0.0178774 -0.989875 -0.140812
-0.7306 -0.997832 1.92885 -0.00878903 -0.974901 -0.222467
-0.738448 -1.01279 1.96104 0.0124314 -0.947756 -0.318754
-0.681082 -0.916087 1.90487 -0.0461777 -0.980101 -0.193056
-0.700659 -0.951131 1.95295 -0.0096393 0.953771 0.300382
0.461344 0.968004 1.37778 -0.281613 0.915242 0.288143
0.504092 1.0372 1.37654 -0.339179 0.92705 0.159797
0.423573 0.899468 1.48361 0.0935384 0.993684 0.0619885
0.519114 1.05718 1.43752 -0.375597 0.904797 0.200675
0.474152 0.979235 1.51193 -0.191232 0.981155 0.0276629
0.475155 0.97839 1.54688 -0.0760289 0.996599 0.0317879
0.48235 0.987923 1.57659 -0.121296 0.991786 -0.040582
0.468716 0.96262 1.62276 -0.0295075 0.996863 -0.073442
0.520465 1.04665 1.61751 -0.0198031 0.997468 -0.0683083
0.480476 0.97735 1.68339 0.0769465 0.993661 -0.0819619
0.50756 1.02012 1.69779 0.0449422 0.996796 -0.0661668
0.493542 0.994278 1.74279 -0.0356385 0.999353 -0.00490897
0.535447 1.06172 1.74709 -0.169097 -0.9772 0.128402
0.458346 0.930809 1.83582 0.0242811 0.992448 0.120236
0.513824 1.02083 1.83105 0.00807379 -0.988183 -0.153063
0.516476 1.02285 1.86315 0.0608896 -0.994808 -0.0815496
0.469172 0.941808 1.92792 -0.0542808 -0.995904 0.0723167
0.482623 0.96185 1.95204 -0.0557504 -0.989643 0.13228
0.506455 0.999124 1.96979 -0.0329702 0.936923 -0.347977
-0.751174 -0.999644 1.0908 -0.13115 -0.960114 -0.246943
-0.76991 -1.03421 1.16014 -0.0739169 -0.986058 -0.149084
-0.725577 -0.958784 1.09248 -0.0660129 -0.987712 -0.141658
-0.761738 -1.02363 1.19801 -0.0272266 -0.996067 -0.084322
-0.761379 -1.02482 1.2247 -0.0277421 -0.999379 -0.0217252
-0.771565 -1.04431 1.27302 0.00351113 -0.999737 0.0226837
-0.730412 -0.974639 1.21543 -0.0160161 -0.999609 0.0229012
-0.760244 -1.02819 1.30325 0.00657657 -0.999978 0.000689641
-0.721754 -0.963252 1.25286 0.017105 -0.999701 0.0174807
-0.692455 -0.914338 1.22228 0.0189942 -0.998456 0.0522005
-0.724999 -0.972439 1.31334 -0.0265757 0.999322 -0.0255017
-0.720125 -0.965777 1.3306 -0.0280849 0.999524 0.0127545
-0.743122 -1.00722 1.40077 0.00022391 0.99983 -0.0184426
-0.742174 -1.00728 1.42471 -0.0246541 0.999684 -0.00481049
-0.736957 -0.999978 1.44057 0.0263347 -0.999554 0.0140715
-0.744387 -1.01444 1.47956 0.0429949 -0.998866 0.0204596
-0.740401 -1.00924 1.49738 -0.0446255 0.998923 -0.0127094
-0.756285 -1.03817 1.55053 0.0283778 -0.999597 -0.000418674
-0.73197 -0.998038 1.53211 0.067011 -0.997731 -0.00656841
-0.731969 -0.999662 1.55675 -0.0595251 0.998144 -0.0128401
-0.723683 -0.987077 1.56699 0.0630064 -0.997917 0.0138404
-0.741248 -1.01876 1.62106 -0.00783497 0.999279 0.0371408
-0.729371 -1.00001 1.62506 -0.0113859 0.999564 0.0272564
-0.74282 -1.02458 1.67104 0.0238769 0.998348 -0.0522644
-0.715703 -0.97981 1.6504 0.00918344 0.999491 0.0305442
-0.732947 -1.0108 1.70176 0.0649073 0.997188 -0.037448
-0.743625 -1.03053 1.7418 0.0490031 0.996252 -0.0712807
-0.730334 -1.0094 1.74384 0.0707967 0.995735 -0.059152
-0.705216 -0.968152 1.72808 0.082032 0.993316 -0.0812029
-0.720317 -0.995364 1.77416 0.0548621 0.998176 -0.0252084
-0.726755 -1.0078 1.80645 0.0300573 0.998984 -0.0335924
-0.731395 -1.01715 1.83565 -0.01857 -0.999432 -0.0281149
-0.704613 -0.973174 1.81877 0.0327649 0.998098 -0.0522212
-0.716634 -0.995032 1.85844 0.0114169 -0.998893 -0.0456254
-0.699909 -0.968155 1.85681 -0.0347528 -0.998074 -0.0513842
-0.686002 -0.94608 1.85959 -0.0564392 -0.995126 -0.0808644
-0.688488 -0.951752 1.88526 0.0399268 0.990076 0.134739
-0.699637 -0.972048 1.92239 -0.00317718 0.976184 0.21692
-0.727381 -1.02033 1.98106 0.0179341 -0.931704 -0.362776
-0.674891 -0.933136 1.93293 0.0367445 0.961399 0.272695
0.477547 0.945471 1.41739 -0.261066 0.933037 0.247561
0.527522 1.02591 1.41054 -0.419689 0.84062 0.342374
0.526708 1.02214 1.44799 -0.375801 0.90017 0.220152
0.564872 1.08291 1.45276 -0.442274 0.869568 0.219646
0.530427 1.02349 1.51766 0.285893 -0.942832 -0.171268
0.494478 0.961676 1.58243 -0.11763 0.992825 -0.021467
0.553331 1.0566 1.57146 0.200276 -0.962307 -0.183999
0.51603 0.992634 1.63602 -0.0457818 0.998156 0.0398693
0.50771 0.976591 1.67733 0.0663314 0.99422 -0.0844166
0.560979 1.06216 1.6726 0.147552 0.987197 -0.0605814
0.488594 0.940519 1.76027 -0.0730906 0.994998 -0.0680945
0.518875 0.988167 1.77267 0.0183 -0.998478 0.0520346
0.539051 1.01913 1.79275 0.0219188 -0.999672 0.0132815
0.489826 0.935879 1.86042 -0.0203916 -0.992056 -0.124136
0.536678 1.01074 1.86241 0.147066 -0.989088 0.00875359
0.500502 0.949056 1.91965 0.0559808 0.992438 -0.10924
0.477958 0.909852 1.96694 -0.0979236 -0.899772 0.42523
0.54573 1.01898 1.95703 -0.02413 -0.9221 0.386199
0.538798 1.00542 1.99435 -0.0711609 0.426773 -0.901555
-0.752692 -1.0312 1.1199 -0.0902602 -0.971332 -0.219924
-0.712843 -0.96449 1.06208 -0.118858 -0.966882 -0.225859
-0.741229 -1.01496 1.15133 -0.0631877 -0.9915 -0.113734
-0.726717 -0.991797 1.14864 -0.0505526 -0.992676 -0.109721
-0.725523 -0.991471 1.1741 -0.0295973 -0.998798 -0.0390683
-0.688529 -0.929882 1.12592 0.000197077 -0.998658 -0.0517932
-0.727599 -0.99841 1.23347 0.00603238 -0.999928 -0.010412
-0.734311 -1.01154 1.27406 0.0144297 -0.999825 0.0119448
-0.740723 -1.02413 1.31347 -0.0366924 0.99902 0.0247357
-0.733929 -1.01416 1.32656 -0.022794 0.999198 0.0329139
-0.722857 -0.99692 1.33149 -0.0257881 0.999284 0.0276938
-0.718009 -0.990288 1.34857 -0.010177 0.999888 0.0109299
-0.721542 -0.997904 1.3814 -0.00351656 0.999928 0.0115076
-0.715617 -0.989428 1.39628 -0.0215216 0.999681 -0.0132044
-0.75385 -1.05591 1.49208 0.0347802 -0.999352 -0.00930788
-0.720321 -1.00056 1.45612 0.0251807 -0.999681 -0.00173906
-0.708621 -0.982287 1.46046 0.0272428 -0.99946 0.0183646
-0.721233 -1.00519 1.50795 -0.0406957 0.998743 -0.029257
-0.721013 -1.00634 1.53233 0.0802868 -0.996758 -0.00524271
-0.72532 -1.01513 1.56428 -0.0629207 0.997966 0.0102542
-0.723708 -1.0139 1.5858 0.0492574 -0.998107 -0.0368265
-0.730026 -1.02604 1.62044 -0.0208831 0.99843 0.0519725
-0.740985 -1.04598 1.66225 0.00102776 0.999592 -0.0285627
-0.723517 -1.01798 1.6571 0.0125233 0.999689 -0.0215607
-0.734097 -1.03723 1.69757 0.0444556 0.998724 -0.0239483
-0.694008 -0.971213 1.65706 0.0117101 0.998617 0.0512561
-0.719858 -1.01612 1.7212 0.0596061 0.995301 -0.0763137
-0.713141 -1.00625 1.7338 0.0728286 0.995234 -0.0648533
-0.688524 -0.966344 1.71924 0.0729437 0.993638 -0.0858029
-0.700071 -0.987135 1.75981 0.0743475 0.995059 -0.0658036
-0.682454 -0.959016 1.75652 0.0644556 0.994928 -0.0772216
-0.726304 -1.03386 1.84354 0.0157174 -0.999645 -0.0215387
-0.719232 -1.02337 1.85525 0.0257938 -0.999524 -0.0169453
-0.684745 -0.967047 1.82814 -0.0504336 -0.996966 0.0592977
-0.704766 -1.00188 1.87855 0.011567 0.995981 0.0888113
-0.720655 -1.02974 1.92228 0.0351558 -0.980321 -0.194254
-0.72885 -1.04472 1.95474 -0.0399329 0.954906 0.294212
-0.692797 -0.985907 1.92735 0.0145044 0.978305 0.20666
-0.71425 -1.02297 1.97723 -0.00860503 0.920957 0.389568
-0.699636 -0.999926 1.97911 -0.00959546 -0.92419 -0.381813
-0.660357 -0.935871 1.9497 -0.0742437 -0.939835 -0.333463
0.558788 1.02993 1.40085 0.580326 -0.715148 -0.389597
0.521491 0.966632 1.46903 -0.390983 0.90568 0.163939
0.513399 0.951183 1.51173 0.303598 -0.949583 -0.0782301
0.51868 0.957623 1.54312 0.251498 -0.956242 -0.149501
0.544777 0.998073 1.5579 -0.234434 0.955068 0.181347
0.576003 1.04686 1.56922 -0.213222 0.950732 0.225046
0.453314 0.844471 1.6987 0.0633398 -0.991823 -0.110795
0.541306 0.985888 1.66662 -0.0345437 0.999033 -0.0272022
0.561674 1.01695 1.6865 -0.0520579 -0.996741 0.0616161
0.559798 1.01174 1.72274 -0.0211061 -0.993317 0.113469
0.522768 0.949332 1.78342 -0.0754254 0.996703 0.0299071
0.579018 1.03878 1.77847 0.0749204 0.982121 -0.1727
0.543925 0.979592 1.83658 0.0533462 -0.992885 -0.106464
0.558629 1.00142 1.86053 -0.0992584 0.99435 0.0376254
0.51934 0.935528 1.91959 0.0663756 0.989887 -0.125372
0.558389 0.996911 1.92776 0.0916828 -0.99458 -0.0490389
0.658778 1.15778 1.89885 -0.0696881 -0.995547 0.0634722
0.600147 1.06057 1.96866 -0.0880813 0.988746 0.120925
-0.700331 -0.970865 1.03212 -0.219961 -0.902129 -0.371188
-0.741286 -1.04176 1.1484 -0.0802752 -0.989372 -0.121243
-0.724609 -1.01516 1.14095 -0.0799646 -0.987359 -0.136849
-0.731351 -1.02813 1.18281 -0.0237643 -0.998082 -0.0571569
-0.744115 -1.05121 1.23644 0.0194095 -0.999771 0.00903997
-0.729245 -1.02769 1.2331 0.014969 -0.999887 0.00159937
-0.734601 -1.03824 1.2708 0.0244427 -0.999601 0.0141533
-0.715597 -1.00779 1.25977 0.0244531 -0.999338 0.0269357
-0.693832 -0.972744 1.24404 -0.026234 0.999334 -0.0253815
-0.709197 -1.00009 1.30081 -0.0418574 0.999113 0.00454711
-0.710289 -1.00343 1.32939 -0.0394884 0.998864 0.0266859
-0.702803 -0.992375 1.34153 -0.0537702 0.997484 0.0462098
-0.721647 -1.02543 1.40275 -0.0275611 0.999187 -0.0294089
-0.694048 -0.980692 1.37759 -0.0272112 0.999413 0.0208062
-0.718315 -1.02275 1.4475 0.0333199 -0.999438 0.00371512
-0.714722 -1.01818 1.46621 -0.0519815 0.997961 -0.0370346
-0.676731 -0.956169 1.4241 0.0604587 -0.996618 0.0556461
-0.713803 -1.01949 1.51441 -0.0678474 0.997171 -0.0323582
-0.662922 -0.936056 1.45141 -0.00493991 0.996866 -0.0789552
-0.676699 -0.960463 1.50034 0.0302534 -0.998661 0.0419584
-0.690273 -0.984485 1.5481 -0.0525624 0.998565 0.0102766
-0.70106 -1.00382 1.59045 0.0408165 -0.998213 -0.0436509
-0.707572 -1.01602 1.62514 -0.0174966 0.998134 0.0585016
-0.671836 -0.95801 1.59123 0.0141867 -0.997743 -0.0656393
-0.681089 -0.974752 1.63022 -0.0269332 -0.99686 -0.0744689
-0.72236 -1.04456 1.71888 0.0476556 0.997739 -0.0473794
-0.699275 -1.0076 1.70593 0.069221 0.996496 -0.0469535
-0.698114 -1.007 1.72725 0.0754053 0.995236 -0.0617936
-0.70662 -1.02238 1.76301 -0.0417923 -0.996042 0.078452
-0.69082 -0.997535 1.76208 0.0498089 0.9944 -0.0932096
-0.680119 -0.981144 1.7691 0.070466 0.994603 -0.0761503
-0.677423 -0.977986 1.78794 0.0515599 0.995092 -0.0844637
-0.675213 -0.975627 1.80739 0.0307058 0.996106 -0.0826435
-0.661935 -0.955008 1.81118 0.0448982 0.995548 -0.0828723
-0.665743 -0.962569 1.83901 0.0503373 0.998662 -0.0118367
-0.692895 -1.00856 1.89843 -0.0342843 -0.985163 -0.168164
-0.644046 -0.929386 1.85416 -0.0797422 -0.996034 -0.0394722
-0.692446 -1.01027 1.94085 0.018686 0.973079 0.229715
-0.702063 -1.02729 1.9747 -0.00628354 0.940962 0.338453
-0.684228 -0.999186 1.97258 -0.0104229 -0.934517 -0.355767
-0.736533 -1.08626 2.06022 -0.0842808 0.889979 0.448144
0.557518 0.976727 1.49162 -0.366421 0.908299 0.201816
0.538495 0.943959 1.54285 -0.344696 0.929405 0.131876
0.601877 1.04424 1.52841 -0.377264 0.879436 0.290283
0.578074 1.00378 1.58292 -0.174856 0.977089 0.121338
0.613377 1.05868 1.59172 -0.162082 0.950452 0.265273
0.550492 0.955299 1.67419 -0.0566051 0.998152 -0.0220915
0.580952 1.00239 1.68666 -0.0620777 0.998069 0.00228996
0.566315 0.976839 1.73193 -0.0154961 0.981712 -0.189742
0.564401 0.9718 1.76764 -0.0392981 -0.998367 0.0414597
0.589481 1.01019 1.7846 0.0387869 0.997816 -0.053471
0.54795 0.941484 1.84666 0.018852 -0.988625 -0.149217
0.60837 1.03665 1.84046 0.0916568 0.995305 -0.0310903
0.560093 0.957186 1.90548 -0.101747 0.994465 -0.0262169
0.55639 0.949355 1.94094 -0.099342 0.956143 -0.275537
0.596338 1.01156 1.94928 -0.0796631 0.996715 -0.0145921
0.622403 1.05147 1.96683 -0.0599442 0.9973 0.0424153
-0.692648 -0.987095 1.04158 -0.149597 -0.94371 -0.295012
-0.696884 -0.995657 1.07927 -0.124149 -0.976456 -0.176411
-0.703981 -1.00895 1.12244 -0.0703192 -0.989816 -0.123773
-0.689799 -0.986853 1.12121 -0.0698757 -0.994436 -0.0788275
-0.678842 -0.970132 1.12699 -0.030312 -0.998971 -0.0337269
-0.694 -0.99676 1.18549 -0.0190061 -0.999816 -0.00278449
-0.701256 -1.01023 1.22733 -0.0027683 -0.999923 0.0120738
-0.713505 -1.03195 1.27835 0.0248621 -0.999515 0.0187269
-0.6654 -0.953703 1.21177 0.0114376 -0.997736 0.0662774
-0.661924 -0.949393 1.23253 0.0176812 -0.998879 0.0439081
-0.683265 -0.986101 1.30005 -0.0138723 0.999797 -0.0145936
-0.689182 -0.997267 1.33758 -0.0372099 0.999099 0.0204071
-0.668785 -0.964976 1.32618 -0.0440728 0.998987 0.009124
-0.68427 -0.991901 1.3807 -0.0496779 0.998633 0.016265
-0.721347 -1.05436 1.47302 0.0373942 -0.999076 0.0212051
-0.674166 -0.977961 1.41417 -0.0379065 0.998726 -0.0333201
-0.680173 -0.98919 1.45026 0.0454734 -0.998514 0.0300203
-0.695264 -1.01533 1.50155 -0.0536341 0.998209 -0.0265056
-0.644647 -0.93345 1.43996 -0.0198323 0.998874 -0.0431014
-0.708268 -1.03927 1.57258 0.0758713 -0.996438 -0.0368216
-0.698848 -1.02507 1.58092 -0.0469809 0.998143 0.0387817
-0.652995 -0.951139 1.52975 0.0217172 -0.998659 0.0469933
-0.697639 -1.0256 1.62673 0.0304034 -0.998222 -0.0512629
-0.704006 -1.03727 1.66051 0.0147459 0.99958 0.024966
-0.699583 -1.03126 1.67683 0.0199852 0.999604 0.0198236
-0.704275 -1.04015 1.7073 0.0328851 0.999172 -0.0239477
-0.689326 -1.01692 1.70727 0.0606357 0.997329 -0.040709
-0.675788 -0.996018 1.70979 0.0526302 0.99839 -0.0211313
-0.675221 -0.996307 1.73205 0.0662499 0.995295 -0.0707077
-0.679941 -1.00521 1.76192 0.0458726 0.994938 -0.0894069
-0.681094 -1.00828 1.78624 0.0148999 0.997614 -0.067411
-0.670819 -0.992721 1.79396 0.0392835 0.99796 -0.0503272
-0.676246 -1.00274 1.82409 0.0331612 0.99887 -0.0340502
-0.681116 -1.01183 1.85305 -0.0225918 -0.99911 -0.0356241
-0.668967 -0.993223 1.85826 0.0456115 0.99721 0.0590916
-0.652121 -0.967002 1.8574 0.0400264 0.996071 0.0789951
-0.679275 -1.01226 1.91579 -0.0500768 -0.983632 -0.173092
-0.68848 -1.02833 1.94934 -0.0346368 -0.969432 -0.242905
-0.669453 -0.998573 1.94572 0.0494934 0.972204 0.228846
-0.681578 -1.01935 1.98251 -0.00976822 0.927677 0.373257
-0.69371 -1.0401 2.01869 -0.00432852 0.854111 0.520073
0.653524 1.0822 1.46686 -0.0729785 -0.995592 0.0589194
0.601873 0.997895 1.54397 -0.333271 0.903456 0.269625
0.624091 1.03143 1.56275 0.277642 -0.916391 -0.288343
0.549475 0.910664 1.65463 -0.10778 0.993802 0.0272341
0.595749 0.98254 1.65509 -0.064315 0.996531 0.0528179
0.595057 0.979601 1.69054 -0.0670438 0.997105 0.0358741
0.602759 0.990031 1.7198 0.0530749 -0.997867 0.0380163
0.594521 0.975112 1.76009 0.0326404 0.98955 -0.140449
0.621915 1.01686 1.77573 0.0227241 0.995599 -0.0909168
0.644959 1.05166 1.7948 -0.0448775 -0.997689 0.0510065
0.594166 0.969189 1.86231 0.16862 -0.985681 0.000192891
0.558771 0.911247 1.91836 -0.0328425 0.990699 -0.132048
0.635715 1.03159 1.90327 -0.0124947 0.99805 0.0611548
0.645663 1.0456 1.93086 -0.0389736 -0.987132 -0.155084
0.585407 0.948328 2.00029 -0.0240157 0.374106 -0.927075
-0.672769 -0.983092 1.0251 -0.229024 -0.926639 -0.298142
-0.65316 -0.952342 1.01303 -0.179027 -0.971582 -0.154848
-0.677809 -0.994114 1.0929 -0.107844 -0.982727 -0.150394
-0.687099 -1.01068 1.14002 -0.0567268 -0.992515 -0.108149
-0.705772 -1.04255 1.20529 0.00728174 -0.999807 0.018269
-0.690045 -1.01815 1.20105 -0.0386434 -0.998935 0.0251956
-0.681605 -1.00568 1.21164 -0.0110191 -0.998526 0.0531392
-0.704927 -1.04505 1.28397 0.056603 -0.997948 0.0299424
-0.673196 -0.994565 1.24953 0.0160199 -0.999504 0.0270992
-0.714477 -1.06314 1.35444 -0.0553695 0.997082 0.0525603
-0.692425 -1.02846 1.33889 -0.0620483 0.99777 0.0246082
-0.673333 -0.998635 1.3296 -0.0334485 0.999338 0.0142829
-0.686435 -1.0212 1.37961 -0.0569717 0.99837 -0.00327928
-0.712252 -1.0644 1.45167 0.0493727 -0.998151 0.0354624
-0.663883 -0.987034 1.39058 -0.0412609 0.998987 -0.0179808
-0.656935 -0.976994 1.40408 -0.0250947 0.998946 -0.0384392
-0.652673 -0.971316 1.42233 -0.01452 0.999188 -0.0375745
-0.64426 -0.958908 1.43345 -0.00747476 0.999334 -0.0357228
-0.655948 -0.979069 1.47865 -0.0355433 0.99785 -0.0550667
-0.644953 -0.962474 1.48534 0.0279318 -0.997354 0.0671176
-0.712155 -1.0724 1.62088 -0.0475488 0.998437 0.029359
-0.681129 -1.02337 1.59391 0.0444097 -0.996757 -0.0671012
-0.706806 -1.06601 1.6589 0.00950028 0.999074 0.0419539
-0.62711 -0.938428 1.55602 -0.0115808 0.999757 0.0187333
-0.640058 -0.960507 1.6008 0.0397283 -0.99682 -0.0690816
-0.654496 -0.984956 1.64715 -0.00897964 -0.998588 -0.0523564
-0.687897 -1.03993 1.72152 0.0491152 0.997154 -0.0572049
-0.689877 -1.04422 1.74724 0.0232851 0.99645 -0.0809081
-0.673488 -1.01892 1.74554 0.0382631 0.995287 -0.0891067
-0.708195 -1.07585 1.81885 0.0265873 -0.999352 -0.0242834
-0.686183 -1.04151 1.80898 0.0328341 0.999157 -0.0246472
-0.646575 -0.978921 1.77483 0.0416446 0.994942 -0.0914132
-0.670914 -1.0191 1.83157 -0.0432095 -0.998991 0.0122412
-0.63872 -0.968489 1.80914 0.0588144 0.9951 -0.0794743
-0.662924 -1.0084 1.86455 -0.0629109 -0.995607 -0.069343
-0.703652 -1.07475 1.94104 0.034074 -0.979509 -0.198495
-0.654852 -0.99756 1.89733 0.0633539 0.987114 0.146946
-0.688556 -1.05258 1.96294 -0.00775914 0.964467 0.264091
-0.664591 -1.01522 1.95295 0.050994 0.969916 0.23804
-0.660591 -1.00984 1.969 0.0352247 0.940828 0.337049
-0.641051 -0.979617 1.96562 0.0853232 0.937228 0.338117
0.669931 1.05956 1.5066 -0.248764 -0.944452 -0.214773
0.576424 0.910516 1.61404 -0.116287 0.992215 0.0445703
0.62469 0.984832 1.61292 -0.17722 0.961251 0.211163
0.639426 1.00632 1.63745 -0.147823 0.960798 0.234555
0.629946 0.989712 1.67949 -0.0983708 0.994278 0.0416554
0.625746 0.981426 1.71732 0.164721 -0.985754 0.0339874
0.626384 0.980763 1.75146 -0.10326 0.990628 -0.0894057
0.639396 0.999548 1.77706 -0.0461258 0.998926 -0.00435782
0.677765 1.05815 1.78608 -0.0399487 0.993721 -0.104509
0.646553 1.00749 1.84083 -0.058771 0.998045 -0.0212565
0.676157 1.0523 1.85608 -0.0542158 -0.998173 -0.0266851
0.625046 0.970496 1.92179 -0.0687193 0.997237 0.0282153
0.639774 0.991984 1.94609 -0.0941014 0.992123 -0.0826865
0.663221 1.02713 1.96543 0.0506648 -0.994883 -0.087408
-0.666072 -1.00077 1.0365 -0.190766 -0.946448 -0.260469
-0.641413 -0.962223 1.01419 -0.188704 -0.971253 -0.145119
-0.694176 -1.04861 1.15074 -0.0600534 -0.993046 -0.101257
-0.65979 -0.994377 1.10885 -0.0707524 -0.993399 -0.0902962
-0.678109 -1.02512 1.1733 -0.0511096 -0.997225 -0.0541406
-0.657372 -0.99293 1.15982 -0.0256117 -0.999356 -0.0251243
-0.661189 -1.00028 1.19478 0.00366238 -0.999482 0.0319727
-0.657249 -0.99514 1.21445 0.00144197 -0.998869 0.0475158
-0.643343 -0.973984 1.21517 -0.0119369 -0.998188 0.0589709
-0.661534 -1.00439 1.27639 -0.00421121 -0.998628 0.0521991
-0.67495 -1.02708 1.3277 -0.0426511 0.999056 0.00822653
-0.624162 -0.946769 1.26094 0.00384052 -0.999793 0.0199733
-0.63332 -0.962627 1.30436 0.0346942 -0.9993 0.0139588
-0.625901 -0.951905 1.31762 -0.0106667 0.999928 -0.00542622
-0.682451 -1.04359 1.44348 -0.0389359 0.998771 -0.0306526
-0.667991 -1.02155 1.44331 -0.0316905 0.998831 -0.0365062
-0.636989 -0.973082 1.41521 -0.0148304 0.999143 -0.0386452
-0.660121 -1.01116 1.47987 -0.0382367 0.997012 -0.0671156
-0.657134 -1.00748 1.49968 0.0553865 -0.99771 0.038812
-0.633443 -0.970753 1.48525 -0.0299186 0.997575 -0.062848
-0.641992 -0.985484 1.52413 -0.0344655 0.998991 -0.0287851
-0.666472 -1.02559 1.58805 -0.0234912 0.997568 0.0656158
-0.662163 -1.01977 1.60507 0.0151927 -0.997625 -0.0671821
-0.664952 -1.02525 1.63319 -0.0244666 -0.996883 -0.0750082
-0.620601 -0.955703 1.58816 -0.0353047 0.998574 0.0400481
-0.652155 -1.00695 1.66049 0.0010375 -0.999136 -0.0415554
-0.633478 -0.978288 1.65576 0.0342933 -0.997624 -0.0597458
-0.669785 -1.037 1.73324 0.0512253 0.996605 -0.0644514
-0.614107 -0.94959 1.67434 0.0316604 -0.998431 -0.046195
-0.640058 -0.991809 1.73541 -0.00657097 0.998217 -0.0593319
-0.676286 -1.05028 1.80994 0.0195751 0.998929 -0.0419168
-0.657555 -1.02155 1.8056 0.0387069 0.998115 -0.0476301
-0.631606 -0.981406 1.79179 0.0315509 0.998378 -0.047398
-0.627943 -0.976592 1.80928 0.0530851 0.997867 -0.0380039
-0.637627 -0.992902 1.84474 -0.0700138 -0.997131 -0.0287791
-0.621474 -0.968317 1.8453 0.0774189 0.996986 0.00497747
-0.657205 -1.02578 1.91433 0.0456764 0.982103 0.182722
-0.621724 -0.97065 1.88979 0.0651071 0.988667 0.135269
-0.638387 -0.997928 1.93286 0.0457311 0.974877 0.217998
-0.643446 -1.00685 1.96057 0.0659788 0.955587 0.287228
-0.676846 -1.06048 2.02302 -0.0079267 -0.869938 -0.493097
-0.66214 -1.03818 2.02542 -0.0259811 -0.858317 -0.512462
0.681652 1.02853 1.58537 -0.150645 -0.975002 -0.16333
0.661114 0.995017 1.63602 -0.193807 0.95561 0.221921
0.665298 0.999975 1.66828 -0.157018 0.987547 0.00980945
0.638144 0.956236 1.72224 -0.128856 0.98492 -0.115447
0.69348 1.04069 1.71894 -0.0696461 0.996271 -0.0509332
0.653769 0.977488 1.78045 -0.0839629 0.996357 0.0149057
0.680475 1.01744 1.79718 -0.0688733 0.997405 0.0209921
0.690193 1.03102 1.82529 -0.0712207 0.996993 0.0305348
0.683904 1.01976 1.86347 0.0317574 0.999014 0.0310135
0.686688 1.02259 1.89569 0.0905397 0.995526 0.0270177
0.652645 0.968342 1.94984 -0.132892 0.990765 -0.0269086
0.689408 1.02385 1.96136 0.00128466 0.999869 0.0161395
-0.671138 -1.0369 1.07198 -0.138861 -0.959332 -0.245765
-0.668215 -1.03336 1.09406 -0.113024 -0.978032 -0.175154
-0.657946 -1.01815 1.10122 -0.0848076 -0.988308 -0.126711
-0.629004 -0.973303 1.07139 -0.121342 -0.985175 -0.121273
-0.659124 -1.02222 1.15906 -0.0335299 -0.99814 -0.0509171
-0.69098 -1.07383 1.24842 0.0160908 -0.999701 0.0184068
-0.648941 -1.00824 1.19398 0.0111775 0.999271 -0.0364956
-0.641852 -0.998088 1.20765 0.00760957 0.997503 -0.0702202
-0.648402 -1.00953 1.247 -0.00823669 -0.999082 0.0420499
-0.660067 -1.02904 1.2953 -0.0197747 -0.999029 0.0393667
-0.622268 -0.97031 1.2523 -0.024476 -0.998836 0.041557
-0.663737 -1.03691 1.35408 -0.0791332 0.996831 0.00810524
-0.657111 -1.02746 1.36791 0.0690668 -0.997501 0.0148923
-0.664185 -1.03965 1.40598 0.0560561 -0.998402 -0.00711843
-0.636569 -0.997072 1.38312 -0.0577716 0.998298 0.00796268
-0.658094 -1.03203 1.44574 -0.0296638 0.998993 -0.0336508
-0.651137 -1.02205 1.45887 -0.0493604 0.997984 -0.0398857
-0.64007 -1.00561 1.46519 -0.0275243 0.997498 -0.0651236
-0.620117 -0.975179 1.45708 -0.0264059 0.996925 -0.0737752
-0.630583 -0.992644 1.4993 -0.00608229 0.999331 -0.0360666
-0.640288 -1.00889 1.53965 -0.0269675 0.999632 -0.00296696
-0.640379 -1.00999 1.5641 -0.0346714 0.99866 0.038413
-0.604553 -0.954661 1.53189 -0.00932806 0.999777 -0.0189233
-0.576918 -0.912244 1.51366 0.00996087 0.99913 -0.0405078
-0.631806 -0.999379 1.62268 0.0388632 -0.993352 -0.10836
-0.618646 -0.979675 1.62649 0.0260174 -0.992368 -0.120536
-0.618268 -0.980024 1.64969 0.0367234 -0.997928 -0.0528388
-0.648565 -1.02844 1.71784 0.0125102 0.999764 -0.0177553
-0.626632 -0.994987 1.70881 0.0107347 0.999161 -0.039521
-0.637304 -1.01261 1.74713 0.00405725 0.996468 -0.0838803
-0.619311 -0.98535 1.74438 -0.0198151 0.99738 -0.0695692
-0.630565 -1.00386 1.78289 -0.0426907 -0.997458 0.0570459
-0.644461 -1.02647 1.82442 0.0400968 0.999188 0.00382721
-0.651552 -1.03842 1.85603 -0.0594883 -0.997262 -0.0439207
-0.62226 -0.993532 1.83857 -0.0730556 -0.997284 0.00930544
-0.65829 -1.05065 1.90813 0.0625508 0.982305 0.176533
-0.600022 -0.960578 1.85364 0.0717052 0.996709 0.0378018
-0.621378 -0.994761 1.90315 -0.0562777 -0.98461 -0.165459
-0.610739 -0.979031 1.91129 -0.0712342 -0.980672 -0.182232
-0.602578 -0.967172 1.92274 -0.0893131 -0.971979 -0.217442
-0.628913 -1.00904 1.97666 0.0528648 0.933057 0.355823
-0.632969 -1.01619 2.00253 -0.0473387 -0.915161 -0.400299
0.6982 1.00731 1.62354 -0.0892317 -0.991124 -0.0985401
0.68003 0.977983 1.67178 -0.0961069 0.993679 -0.0580079
0.661603 0.948292 1.71944 -0.172031 0.98028 -0.0972484
0.685333 0.983366 1.73784 -0.0974585 0.993628 -0.056613
0.731381 1.05268 1.74188 -0.0570416 0.996268 -0.0647771
0.697505 0.999315 1.79881 -0.0933179 0.993384 0.0669385
0.682947 0.975626 1.84232 -0.0521892 0.9984 0.0217481
0.695094 0.992911 1.86861 0.016201 0.9997 0.0183648
0.678611 0.966305 1.91241 -0.0366988 0.999152 0.0186642
0.683029 0.971754 1.94312 0.0192977 -0.99977 0.00933338
0.740584 1.05861 1.94282 -0.0906264 -0.989472 0.112838
0.706697 1.00538 1.9958 -0.00322507 -0.996757 0.0804077
-0.603506 -0.958303 0.957996 -0.179905 -0.950421 -0.25364
-0.6015 -0.956199 0.983241 -0.0700091 -0.992507 -0.100147
-0.637834 -1.01409 1.08491 -0.111483 -0.98466 -0.134228
-0.612227 -0.975031 1.06235 -0.0996649 -0.986056 -0.133265
-0.612289 -0.976132 1.0908 -0.0859694 -0.992402 -0.0880183
-0.61048 -0.974301 1.11541 -0.0489093 -0.997874 -0.0430715
-0.624732 -0.997545 1.17042 0.0230072 0.999656 -0.0125812
-0.626157 -1.00074 1.20042 0.00356181 0.998521 -0.0542593
-0.638978 -1.0217 1.25129 0.00026895 -0.999333 0.0365179
-0.612099 -0.980728 1.22851 0.030225 -0.998915 0.0354225
-0.613853 -0.984415 1.25861 0.0154788 -0.997293 0.0718895
-0.628702 -1.00849 1.31184 -0.038784 0.999007 -0.0219159
-0.639707 -1.02655 1.35739 -0.0400588 0.999193 -0.00279113
-0.628923 -1.01067 1.3642 0.0493385 -0.998781 -0.00150155
-0.630924 -1.0147 1.39331 -0.0472955 0.998599 0.0237181
-0.636967 -1.02499 1.42901 -0.0301084 0.999477 -0.0118244
-0.61023 -0.984336 1.40912 -0.0435038 0.998992 -0.011088
-0.616978 -0.995716 1.44575 -0.0307843 0.998158 -0.0522772
-0.621489 -1.00361 1.47822 -0.024662 0.998105 -0.056383
-0.61413 -0.993068 1.49109 -0.0226139 0.998824 -0.042897
-0.612538 -0.991475 1.51328 0.00185483 -0.999691 0.0248006
-0.620629 -1.00489 1.5506 0.00334465 -0.999884 -0.0148508
-0.596241 -0.967959 1.53683 -0.00362233 0.999987 -0.00349751
-0.602909 -0.979154 1.57158 0.0226072 0.999505 0.0218623
-0.596192 -0.969613 1.58556 0.00617187 0.99933 0.0360855
-0.586293 -0.955151 1.59486 0.0309347 0.998877 0.0358891
-0.620086 -1.00827 1.66888 0.0396914 -0.999103 -0.0147882
-0.614641 -1.00067 1.68421 0.0160473 -0.999489 -0.0276609
-0.615808 -1.0033 1.70907 -0.0222752 0.999302 -0.0299901
-0.616671 -1.00545 1.73328 0.0191246 -0.997584 0.0667834
-0.613955 -1.00206 1.75226 -0.0224619 0.998995 -0.0387923
-0.622908 -1.01668 1.78728 0.0330856 0.998428 -0.0452413
-0.603628 -0.987732 1.78335 -0.0040469 -0.999057 0.0432402
-0.605345 -0.991177 1.80816 0.0403968 0.998961 -0.0211043
-0.633733 -1.03572 1.86806 -0.0571931 -0.994854 -0.0836285
-0.619411 -1.01442 1.87096 -0.0635055 -0.994604 -0.0820327
-0.577979 -0.951389 1.8393 -0.0388362 -0.999186 -0.0109445
-0.608057 -0.998477 1.89979 0.0878832 0.984589 0.151197
-0.613562 -1.00771 1.92826 -0.0893011 -0.976408 -0.196601
